# 3D point list with one line of data per point:
# POINT3D_ID, X, Y, Z, R, G, B, ERROR, TRACK[] as (IMAGE_ID, POINT2D_IDX)
# Number of points: 824, mean track length: 0
1104 -0.055930954 -0.034299789 0.392515896 128 128 128 1.0
1105 0.138577932 -0.142359513 0.348540452 128 128 128 1.0
1106 0.003315082 -0.006714569 0.335031124 128 128 128 1.0
1107 -0.027229636 0.080335425 0.312788990 128 128 128 1.0
1108 -0.010185275 -0.000009093 0.358599646 128 128 128 1.0
1109 -0.013669102 0.079939673 0.349305696 128 128 128 1.0
1110 0.013924871 -0.004116252 0.269758046 128 128 128 1.0
1111 -0.066397379 -0.084000570 0.365411886 128 128 128 1.0
1112 -0.057079472 -0.084911031 0.369048472 128 128 128 1.0
1113 0.042002538 -0.140864735 0.485173826 128 128 128 1.0
1114 0.002582491 -0.008413388 0.435342015 128 128 128 1.0
1115 0.005584991 -0.048308717 0.525565949 128 128 128 1.0
1116 -0.085951663 -0.007809670 0.417775580 128 128 128 1.0
1117 -0.085571638 -0.008162238 0.380925193 128 128 128 1.0
1118 0.192131787 -0.071423774 0.346187070 128 128 128 1.0
1119 0.052696570 0.006483628 0.253772217 128 128 128 1.0
1120 0.032650317 0.008603996 0.385650497 128 128 128 1.0
1121 0.090517290 0.081055710 0.382620990 128 128 128 1.0
1122 0.024846895 -0.087877737 0.339254814 128 128 128 1.0
1123 0.017625728 -0.032081220 0.357808698 128 128 128 1.0
1124 -0.066025593 0.122746112 0.522166337 128 128 128 1.0
1125 -0.031163693 0.032028681 0.331267257 128 128 128 1.0
1126 0.101028884 0.034799751 0.356186681 128 128 128 1.0
1127 -0.017893040 0.010090188 0.269970356 128 128 128 1.0
1128 0.054042599 -0.057119593 0.392790550 128 128 128 1.0
1129 0.010370811 0.087595450 0.348640574 128 128 128 1.0
1130 0.081845679 -0.073788219 0.398755577 128 128 128 1.0
1131 -0.017927722 0.015537432 0.355739962 128 128 128 1.0
1132 0.074903290 -0.161569000 0.375846539 128 128 128 1.0
1133 -0.119559891 0.096545347 0.192180544 128 128 128 1.0
1134 -0.080302543 -0.133910333 0.481138888 128 128 128 1.0
1135 -0.103119882 0.009113160 0.307136588 128 128 128 1.0
1136 -0.143980992 -0.026983040 0.403018820 128 128 128 1.0
1137 -0.014741466 0.075286399 0.321046019 128 128 128 1.0
1138 0.000548677 -0.030783900 0.377485465 128 128 128 1.0
1139 0.151912944 0.028979247 0.365555301 128 128 128 1.0
1140 -0.049473173 -0.060438430 0.467125544 128 128 128 1.0
1141 -0.088979076 -0.073051348 0.342203907 128 128 128 1.0
1142 -0.034104835 0.156495124 0.160701446 128 128 128 1.0
1143 0.028908970 0.057016836 0.260360513 128 128 128 1.0
1144 -0.051566170 0.034608797 0.480361048 128 128 128 1.0
1145 -0.073641070 -0.126337781 0.427797566 128 128 128 1.0
1146 0.121899461 -0.026802527 0.172897058 128 128 128 1.0
1147 0.116149158 -0.015882431 0.439911862 128 128 128 1.0
1148 -0.003478549 -0.030051724 0.313846985 128 128 128 1.0
1149 0.117875601 0.114756102 0.178972030 128 128 128 1.0
1150 -0.074900398 0.142166306 0.320616524 128 128 128 1.0
1151 -0.108837872 0.000357259 0.341330656 128 128 128 1.0
1152 -0.007787603 -0.038365031 0.325193840 128 128 128 1.0
1153 -0.036472620 0.026712532 0.284980811 128 128 128 1.0
1154 -0.023171544 -0.011525912 0.454459273 128 128 128 1.0
1155 0.029872891 -0.008776022 0.392895038 128 128 128 1.0
1156 0.032489463 0.087026789 0.390521057 128 128 128 1.0
1157 0.143512856 0.107569364 0.346719887 128 128 128 1.0
1158 -0.033160771 0.070604460 0.391330323 128 128 128 1.0
1159 -0.007565517 -0.118156123 0.203410093 128 128 128 1.0
1160 0.027860684 0.061667381 0.414274839 128 128 128 1.0
1161 -0.102973741 0.082987507 0.307267415 128 128 128 1.0
1162 0.031073722 0.033335310 0.285801085 128 128 128 1.0
1163 -0.047306004 -0.165844219 0.276660756 128 128 128 1.0
1164 -0.144203365 0.034988571 0.354913353 128 128 128 1.0
1165 0.073124166 0.028523378 0.299219383 128 128 128 1.0
1166 0.027696085 -0.031234009 0.398724935 128 128 128 1.0
1167 0.025229837 -0.079085858 0.350175926 128 128 128 1.0
1168 0.004426724 -0.024616876 0.421592526 128 128 128 1.0
1169 0.137044072 -0.029418697 0.321944121 128 128 128 1.0
1170 -0.179845054 -0.010313553 0.315105384 128 128 128 1.0
1171 -0.172894332 0.023079494 0.397281056 128 128 128 1.0
1172 -0.058728539 -0.029808986 0.272681295 128 128 128 1.0
1173 0.061003370 -0.121395519 0.324939097 128 128 128 1.0
1174 0.156085773 0.004127035 0.387434548 128 128 128 1.0
1175 -0.011732330 -0.093954069 0.347386297 128 128 128 1.0
1176 0.032517894 -0.081811331 0.377329113 128 128 128 1.0
1177 0.099592802 0.085575152 0.223380378 128 128 128 1.0
1178 -0.078022367 -0.129094346 0.435692416 128 128 128 1.0
1179 0.048826348 0.056251245 0.279731976 128 128 128 1.0
1180 -0.093333277 0.006152619 0.358078692 128 128 128 1.0
1181 -0.068340273 0.011374071 0.401565444 128 128 128 1.0
1182 0.018241262 -0.083150363 0.180987027 128 128 128 1.0
1183 -0.020710396 0.013148393 0.329193296 128 128 128 1.0
1184 -0.034268011 -0.055315616 0.407251041 128 128 128 1.0
1185 -0.004189974 0.009857646 0.272278110 128 128 128 1.0
1186 -0.049633734 0.013103832 0.269566573 128 128 128 1.0
1187 -0.100743918 -0.026332080 0.446077662 128 128 128 1.0
1188 0.015276142 0.116767961 0.339478188 128 128 128 1.0
1189 -0.024805229 -0.111378991 0.303902036 128 128 128 1.0
1190 0.114814699 0.026204022 0.408649688 128 128 128 1.0
1191 0.056407827 -0.000763635 0.333615521 128 128 128 1.0
1192 0.009534686 0.053704167 0.386629297 128 128 128 1.0
1193 0.039357777 0.012331534 0.288405287 128 128 128 1.0
1194 -0.020927634 -0.075316246 0.430372629 128 128 128 1.0
1195 -0.168163513 -0.017429113 0.540976923 128 128 128 1.0
1196 -0.027322764 -0.090782770 0.348563607 128 128 128 1.0
1197 0.103150109 -0.012836033 0.399067904 128 128 128 1.0
1198 0.007996239 -0.029829845 0.602023029 128 128 128 1.0
1199 0.005692051 -0.042972619 0.310801334 128 128 128 1.0
1200 0.030445960 0.032737392 0.411760929 128 128 128 1.0
1201 0.011291523 -0.114529454 0.392553757 128 128 128 1.0
1202 -0.024717067 -0.022888013 0.231367164 128 128 128 1.0
1203 -0.045881979 -0.058147057 0.347082893 128 128 128 1.0
1204 -0.116273524 0.004052503 0.359946879 128 128 128 1.0
1205 -0.089581428 -0.049972509 0.281395715 128 128 128 1.0
1206 0.072609159 -0.202261112 0.322534010 128 128 128 1.0
1207 -0.132842140 -0.034533728 0.417739267 128 128 128 1.0
1208 -0.050448902 0.011071089 0.282418015 128 128 128 1.0
1209 0.155158609 0.073055706 0.440175311 128 128 128 1.0
1210 -0.106254515 -0.088086310 0.436380604 128 128 128 1.0
1211 -0.015549454 -0.020633764 0.376702665 128 128 128 1.0
1212 -0.100414161 0.061829349 0.351465917 128 128 128 1.0
1213 0.038339212 -0.053649121 0.391058389 128 128 128 1.0
1214 -0.056390530 0.076350448 0.440371695 128 128 128 1.0
1215 0.072950849 0.041317093 0.400705300 128 128 128 1.0
1216 -0.216474192 0.066790736 0.328076811 128 128 128 1.0
1217 0.007595599 -0.022696491 0.238709039 128 128 128 1.0
1218 -0.043090669 0.052682786 0.463389567 128 128 128 1.0
1219 -0.049833781 -0.072317719 0.466140983 128 128 128 1.0
1220 -0.070605544 0.165890877 0.354051891 128 128 128 1.0
1221 -0.070672723 0.078747009 0.485467909 128 128 128 1.0
1222 -0.114779808 0.124716967 0.327487585 128 128 128 1.0
1223 0.118906365 -0.030437155 0.223824547 128 128 128 1.0
1224 0.040157369 0.074126248 0.517677029 128 128 128 1.0
1225 0.137887818 0.055619365 0.330983416 128 128 128 1.0
1226 -0.041652130 -0.023589836 0.283525422 128 128 128 1.0
1227 -0.021964162 -0.203562194 0.364309445 128 128 128 1.0
1228 -0.002314808 0.205269951 0.410699279 128 128 128 1.0
1229 -0.038417619 0.045178751 0.251938711 128 128 128 1.0
1230 -0.048215353 -0.149407577 0.464900762 128 128 128 1.0
1231 0.047467198 -0.094046742 0.345160994 128 128 128 1.0
1232 0.075981456 0.039608687 0.380582163 128 128 128 1.0
1233 -0.068627375 -0.050979608 0.357612188 128 128 128 1.0
1234 0.073620441 -0.066309351 0.260287997 128 128 128 1.0
1235 0.091522394 -0.074424987 0.436172936 128 128 128 1.0
1236 0.019444389 0.070483786 0.489550415 128 128 128 1.0
1237 0.055093083 0.062082552 0.276573190 128 128 128 1.0
1238 -0.055614854 0.051515722 0.472740866 128 128 128 1.0
1239 0.111368166 0.185333235 0.374871262 128 128 128 1.0
1240 0.016222701 0.080496148 0.351513097 128 128 128 1.0
1241 -0.004997469 -0.083789192 0.429297611 128 128 128 1.0
1242 -0.085759822 0.040980807 0.236466061 128 128 128 1.0
1243 0.087706929 -0.082304626 0.417478574 128 128 128 1.0
1244 -0.127146838 -0.035185283 0.444267632 128 128 128 1.0
1245 -0.064427650 0.005375281 0.311725520 128 128 128 1.0
1246 -0.184754424 0.024644726 0.384580680 128 128 128 1.0
1247 -0.088621779 0.045894904 0.286344392 128 128 128 1.0
1248 -0.080271750 0.000548284 0.295486804 128 128 128 1.0
1249 0.183394688 -0.124393731 0.409075201 128 128 128 1.0
1250 0.079112585 -0.158341690 0.211401270 128 128 128 1.0
1251 0.044991271 -0.038520941 0.380685028 128 128 128 1.0
1252 0.091155766 -0.029771856 0.264882745 128 128 128 1.0
1253 -0.218355283 0.016367976 0.275710749 128 128 128 1.0
1254 0.025070823 0.018529790 0.239242576 128 128 128 1.0
1255 0.137910071 0.086660664 0.417861710 128 128 128 1.0
1256 -0.094757833 -0.032594423 0.306245638 128 128 128 1.0
1257 -0.033180839 -0.089928619 0.384771761 128 128 128 1.0
1258 0.018338682 0.029229775 0.309524018 128 128 128 1.0
1259 0.103281461 0.015019317 0.130974392 128 128 128 1.0
1260 -0.051209105 -0.004560155 0.427226070 128 128 128 1.0
1261 -0.024057515 -0.020006846 0.296974699 128 128 128 1.0
1262 0.053244267 -0.035806976 0.301723981 128 128 128 1.0
1263 -0.059372474 0.044526518 0.307362027 128 128 128 1.0
1264 -0.134071795 0.049812541 0.293893106 128 128 128 1.0
1265 0.028560218 0.029902812 0.446288558 128 128 128 1.0
1266 0.083562434 -0.046002368 0.336689233 128 128 128 1.0
1267 -0.103232486 0.134186613 0.385330177 128 128 128 1.0
1268 0.111553498 -0.025519695 0.186068446 128 128 128 1.0
1269 0.122537013 0.007449409 0.360654808 128 128 128 1.0
1270 0.004437053 0.051573930 0.392650663 128 128 128 1.0
1271 -0.127242924 0.086951476 0.307683701 128 128 128 1.0
1272 -0.037363844 0.138194299 0.423644689 128 128 128 1.0
1273 -0.027054844 -0.148511371 0.362930982 128 128 128 1.0
1274 0.043092466 -0.006442841 0.250316875 128 128 128 1.0
1275 -0.063255037 -0.100417688 0.367231723 128 128 128 1.0
1276 0.065553356 0.082031918 0.291421769 128 128 128 1.0
1277 0.018802023 0.044325584 0.309108069 128 128 128 1.0
1278 -0.011880591 0.169909311 0.366409841 128 128 128 1.0
1279 0.070636714 -0.034786743 0.353340595 128 128 128 1.0
1280 -0.137146313 -0.002005585 0.445382237 128 128 128 1.0
1281 0.167911886 0.095731282 0.404948476 128 128 128 1.0
1282 0.004237147 -0.047997530 0.337178278 128 128 128 1.0
1283 0.049026882 -0.062811435 0.424650001 128 128 128 1.0
1284 -0.078729282 -0.142339513 0.269032078 128 128 128 1.0
1285 -0.133230451 -0.109786861 0.440570673 128 128 128 1.0
1286 -0.016012151 0.017486421 0.442649085 128 128 128 1.0
1287 0.100728135 -0.040367653 0.456285171 128 128 128 1.0
1288 0.030767821 0.000266126 0.385367914 128 128 128 1.0
1289 -0.114050130 -0.062888092 0.341348604 128 128 128 1.0
1290 0.048776611 -0.029762484 0.339814499 128 128 128 1.0
1291 0.077554768 0.112936130 0.411370644 128 128 128 1.0
1292 0.101473766 -0.032348787 0.325485194 128 128 128 1.0
1293 0.025468291 -0.024085781 0.309429630 128 128 128 1.0
1294 0.132171547 -0.016094474 0.272718870 128 128 128 1.0
1295 0.038991804 0.146863589 0.356464732 128 128 128 1.0
1296 0.098509836 -0.035027814 0.310694872 128 128 128 1.0
1297 -0.055185684 -0.011472837 0.496907760 128 128 128 1.0
1298 -0.092439614 0.130979106 0.269324193 128 128 128 1.0
1299 -0.018704915 0.066863315 0.400421263 128 128 128 1.0
1300 0.022562413 -0.131949283 0.378978730 128 128 128 1.0
1301 -0.081789176 0.205512730 0.332925717 128 128 128 1.0
1302 0.015097589 -0.091736111 0.311689591 128 128 128 1.0
1303 -0.103283373 0.078522619 0.329042205 128 128 128 1.0
1304 0.045012865 -0.054766979 0.309908602 128 128 128 1.0
1305 0.103054452 -0.077735462 0.205884478 128 128 128 1.0
1306 0.032499213 -0.091306657 0.314842688 128 128 128 1.0
1307 0.072926671 -0.065487714 0.420276006 128 128 128 1.0
1308 -0.054498035 0.119254305 0.456008240 128 128 128 1.0
1309 -0.037711633 -0.017058253 0.283445158 128 128 128 1.0
1310 0.016000159 0.091933639 0.234259455 128 128 128 1.0
1311 0.073395876 -0.105914933 0.281222351 128 128 128 1.0
1312 -0.143016301 0.168395645 0.354696136 128 128 128 1.0
1313 0.019580213 -0.054089245 0.435357333 128 128 128 1.0
1314 -0.168254140 0.002133234 0.526537980 128 128 128 1.0
1315 -0.030564321 0.001371804 0.403778639 128 128 128 1.0
1316 -0.064916054 0.001827613 0.426879615 128 128 128 1.0
1317 0.015551323 0.029678965 0.322045247 128 128 128 1.0
1318 0.025248085 0.004461253 0.466405192 128 128 128 1.0
1319 0.057951561 -0.019494546 0.154255002 128 128 128 1.0
1320 0.057257772 0.060421254 0.276647362 128 128 128 1.0
1321 -0.159869474 -0.091344564 0.424095101 128 128 128 1.0
1322 -0.085182519 -0.036762012 0.367631525 128 128 128 1.0
1323 0.097949439 -0.001452575 0.341969014 128 128 128 1.0
1324 -0.043907953 0.130452223 0.435276030 128 128 128 1.0
1325 -0.007609872 -0.111726327 0.286776839 128 128 128 1.0
1326 0.046358531 -0.057718214 0.421381836 128 128 128 1.0
1327 0.028916683 0.023412111 0.402275582 128 128 128 1.0
1328 0.039887028 -0.068414203 0.323933598 128 128 128 1.0
1329 0.187185287 -0.096628526 0.312036403 128 128 128 1.0
1330 0.085255831 -0.012740843 0.285030235 128 128 128 1.0
1331 -0.105853903 0.042882234 0.431591397 128 128 128 1.0
1332 0.111991485 0.004303081 0.433599026 128 128 128 1.0
1333 -0.082635283 0.013441710 0.295809041 128 128 128 1.0
1334 0.013907107 0.060057094 0.435578094 128 128 128 1.0
1335 -0.079192497 0.101398976 0.312049101 128 128 128 1.0
1336 -0.082058623 -0.013648338 0.232995782 128 128 128 1.0
1337 0.000366256 0.023176331 0.333970393 128 128 128 1.0
1338 0.042893175 -0.025174484 0.350324082 128 128 128 1.0
1339 -0.115253133 0.003413773 0.281917087 128 128 128 1.0
1340 -0.035982288 -0.007494325 0.365278211 128 128 128 1.0
1341 -0.131733250 -0.125074097 0.325841996 128 128 128 1.0
1342 0.037950875 0.028819313 0.421422435 128 128 128 1.0
1343 0.104086117 0.039714666 0.348411018 128 128 128 1.0
1344 -0.082516624 -0.075685422 0.312626362 128 128 128 1.0
1345 0.021398929 0.017658843 0.350339500 128 128 128 1.0
1346 -0.012217813 0.050439700 0.366666594 128 128 128 1.0
1347 0.023827744 0.024674970 0.306296563 128 128 128 1.0
1348 -0.082467002 0.039290223 0.383338190 128 128 128 1.0
1349 -0.017602085 -0.033259275 0.532273924 128 128 128 1.0
1350 -0.060736724 -0.017403528 0.371240750 128 128 128 1.0
1351 -0.092338446 0.009378877 0.493819930 128 128 128 1.0
1352 0.074709456 0.050576027 0.397394234 128 128 128 1.0
1353 0.008957137 0.076671437 0.337531059 128 128 128 1.0
1354 -0.033824524 0.008163414 0.422455728 128 128 128 1.0
1355 0.026434047 0.053963116 0.188070463 128 128 128 1.0
1356 0.095444592 0.187248138 0.456792324 128 128 128 1.0
1357 -0.025409595 -0.067875463 0.372197139 128 128 128 1.0
1358 -0.078958069 0.058053723 0.307967163 128 128 128 1.0
1359 0.076853094 0.108970889 0.187419847 128 128 128 1.0
1360 0.023422241 -0.055862497 0.237217605 128 128 128 1.0
1361 -0.049387433 -0.017514710 0.432694979 128 128 128 1.0
1362 -0.121712581 0.084065007 0.511445033 128 128 128 1.0
1363 0.047795285 0.043675300 0.348926191 128 128 128 1.0
1364 -0.094003219 0.042786186 0.380722199 128 128 128 1.0
1365 0.058527433 0.205507228 0.408222475 128 128 128 1.0
1366 0.034056934 0.124954506 0.242382715 128 128 128 1.0
1367 -0.091416209 -0.030016519 0.297605659 128 128 128 1.0
1368 0.055514669 -0.025395297 0.489194707 128 128 128 1.0
1369 0.121635794 0.061605684 0.319120657 128 128 128 1.0
1370 0.049356045 0.064884747 0.264674268 128 128 128 1.0
1371 0.027902379 0.056489103 0.367317096 128 128 128 1.0
1372 0.125688811 0.097133040 0.283953410 128 128 128 1.0
1373 0.009958587 -0.066842081 0.396364476 128 128 128 1.0
1374 -0.069371856 0.073864902 0.381051609 128 128 128 1.0
1375 0.077666767 -0.011606769 0.233496544 128 128 128 1.0
1376 0.141266815 -0.013805481 0.460135205 128 128 128 1.0
1377 0.034414587 0.053912985 0.496379929 128 128 128 1.0
1378 0.027218824 0.112018505 0.231253956 128 128 128 1.0
1379 0.069688012 -0.019350966 0.339274611 128 128 128 1.0
1380 0.000697309 0.027722169 0.482572838 128 128 128 1.0
1381 -0.148297049 0.003523214 0.292681034 128 128 128 1.0
1382 0.093265120 -0.033847340 0.386541604 128 128 128 1.0
1383 -0.031800302 0.053444692 0.431184266 128 128 128 1.0
1384 -0.031791999 0.003926041 0.236371185 128 128 128 1.0
1385 0.024431983 0.068501435 0.305567598 128 128 128 1.0
1386 0.089629017 -0.165864828 0.201893164 128 128 128 1.0
1387 -0.111059391 -0.038783583 0.351489484 128 128 128 1.0
1388 -0.006309164 -0.005367356 0.407886082 128 128 128 1.0
1389 -0.037769587 -0.101086044 0.250497033 128 128 128 1.0
1390 0.169013202 -0.188169301 0.335893713 128 128 128 1.0
1391 0.116632554 0.038669250 0.283635504 128 128 128 1.0
1392 0.000174878 0.069113504 0.446651903 128 128 128 1.0
1393 -0.071947297 0.060836654 0.370200046 128 128 128 1.0
1394 0.088352385 0.111233231 0.322535563 128 128 128 1.0
1395 -0.115967416 0.031666921 0.492129715 128 128 128 1.0
1396 0.054846569 0.018413026 0.542083643 128 128 128 1.0
1397 -0.083202071 0.072239215 0.304364987 128 128 128 1.0
1398 0.003970747 0.007171489 0.471170931 128 128 128 1.0
1399 -0.074881104 -0.042807017 0.222563838 128 128 128 1.0
1400 0.038975933 -0.036658545 0.383757363 128 128 128 1.0
1401 -0.085861263 -0.028750690 0.433114324 128 128 128 1.0
1402 -0.013945537 0.050051130 0.392266125 128 128 128 1.0
1403 -0.028253815 -0.124779675 0.428832003 128 128 128 1.0
1404 0.013656590 0.078662407 0.188984925 128 128 128 1.0
1405 -0.132368745 -0.171418199 0.279852987 128 128 128 1.0
1406 0.083355992 0.045279359 0.347267683 128 128 128 1.0
1407 0.010499224 0.060863057 0.325827970 128 128 128 1.0
1408 0.031685516 0.011196366 0.175036589 128 128 128 1.0
1409 -0.030786306 0.108700503 0.318331151 128 128 128 1.0
1410 -0.011447149 -0.048549292 0.311229428 128 128 128 1.0
1411 0.089920975 -0.021446878 0.268244073 128 128 128 1.0
1412 -0.248909067 -0.045816276 0.192654655 128 128 128 1.0
1413 -0.145899959 0.063614246 0.406694045 128 128 128 1.0
1414 -0.153377013 0.068118358 0.386748678 128 128 128 1.0
1415 -0.062685499 0.058750473 0.219868587 128 128 128 1.0
1416 -0.096354380 -0.115175091 0.261079702 128 128 128 1.0
1417 0.070295104 -0.106690330 0.257896149 128 128 128 1.0
1418 -0.076135860 0.015637098 0.322824458 128 128 128 1.0
1419 0.068987157 -0.056908839 0.246845784 128 128 128 1.0
1420 -0.040331454 0.002788432 0.275271356 128 128 128 1.0
1421 0.021919301 0.144907920 0.302941953 128 128 128 1.0
1422 0.002903226 0.107464299 0.297375683 128 128 128 1.0
1423 -0.068644682 -0.088445742 0.380822733 128 128 128 1.0
1424 0.040064808 -0.013054616 0.352126757 128 128 128 1.0
1425 0.100567846 0.067971901 0.236381460 128 128 128 1.0
1426 -0.002359729 0.006733609 0.405836252 128 128 128 1.0
1427 -0.019716762 -0.053552048 0.311358469 128 128 128 1.0
1428 -0.144307848 -0.004172322 0.300077861 128 128 128 1.0
1429 0.035066710 -0.084420113 0.312734983 128 128 128 1.0
1430 -0.080739129 -0.087801686 0.403385073 128 128 128 1.0
1431 -0.039856898 0.032812415 0.257678090 128 128 128 1.0
1432 0.004920995 -0.138026523 0.308773090 128 128 128 1.0
1433 -0.043239796 0.043515791 0.361245664 128 128 128 1.0
1434 -0.017201730 0.063744849 0.361998691 128 128 128 1.0
1435 0.039673386 0.057922526 0.341288416 128 128 128 1.0
1436 -0.026904030 0.022687460 0.313182858 128 128 128 1.0
1437 0.027470630 0.085019801 0.414729441 128 128 128 1.0
1438 -0.034063178 -0.106275952 0.341924316 128 128 128 1.0
1439 -0.013671201 0.084701916 0.315756832 128 128 128 1.0
1440 -0.020378803 0.055039858 0.308158991 128 128 128 1.0
1441 -0.016443623 0.133153052 0.465237283 128 128 128 1.0
1442 0.046533886 0.017687226 0.268862056 128 128 128 1.0
1443 0.040823129 0.000864085 0.363850172 128 128 128 1.0
1444 -0.045172707 -0.004734248 0.331511258 128 128 128 1.0
1445 0.021413324 0.110233976 0.375087453 128 128 128 1.0
1446 -0.136170327 -0.081259645 0.219747280 128 128 128 1.0
1447 -0.067142294 0.040825721 0.378200653 128 128 128 1.0
1448 -0.051641413 0.017459065 0.285744945 128 128 128 1.0
1449 -0.117239964 -0.116097289 0.277580390 128 128 128 1.0
1450 0.109569273 -0.110905801 0.445390709 128 128 128 1.0
1451 0.102123634 -0.018437761 0.342163984 128 128 128 1.0
1452 -0.052881549 -0.005927126 0.398579566 128 128 128 1.0
1453 -0.003270063 0.075589123 0.440698668 128 128 128 1.0
1454 0.023373268 0.022056640 0.341014102 128 128 128 1.0
1455 0.023560468 -0.093064628 0.378265057 128 128 128 1.0
1456 0.012270741 -0.072965906 0.517678431 128 128 128 1.0
1457 -0.081735228 -0.073518631 0.368068479 128 128 128 1.0
1458 -0.158836978 -0.067367946 0.224086499 128 128 128 1.0
1459 -0.081363980 -0.014807973 0.371276049 128 128 128 1.0
1460 0.083895525 0.060114660 0.440326482 128 128 128 1.0
1461 0.042715068 -0.041677445 0.434768956 128 128 128 1.0
1462 -0.043283321 -0.053355964 0.467811041 128 128 128 1.0
1463 0.058609932 0.013180654 0.405731736 128 128 128 1.0
1464 0.065835949 -0.113221528 0.338125464 128 128 128 1.0
1465 -0.098584226 0.005371823 0.291994966 128 128 128 1.0
1466 0.104150820 0.037029462 0.280721122 128 128 128 1.0
1467 -0.005893530 -0.101229266 0.348814907 128 128 128 1.0
1468 0.039290138 0.016592527 0.191324776 128 128 128 1.0
1469 -0.031259007 0.036190971 0.369972399 128 128 128 1.0
1470 0.088164098 -0.107248782 0.387351415 128 128 128 1.0
1471 -0.056551925 0.011068346 0.377891403 128 128 128 1.0
1472 0.050372012 -0.050674964 0.360228236 128 128 128 1.0
1473 -0.097968838 -0.117358536 0.389828071 128 128 128 1.0
1474 -0.008928147 -0.134032112 0.277430542 128 128 128 1.0
1475 -0.003084711 0.119745324 0.428933665 128 128 128 1.0
1476 0.059201841 -0.147397067 0.337584129 128 128 128 1.0
1477 0.033509909 0.026844511 0.378614020 128 128 128 1.0
1478 -0.023304016 0.135914492 0.463400773 128 128 128 1.0
1479 -0.012162628 -0.083017307 0.509568892 128 128 128 1.0
1480 -0.048861686 0.091036250 0.498018148 128 128 128 1.0
1481 -0.080121035 0.018560774 0.317524236 128 128 128 1.0
1482 0.036501216 0.020946592 0.500924574 128 128 128 1.0
1483 0.042521518 -0.005377514 0.435367964 128 128 128 1.0
1484 -0.026431393 -0.033899509 0.524360612 128 128 128 1.0
1485 -0.070350535 -0.043791485 0.348830893 128 128 128 1.0
1486 -0.089225525 -0.173393771 0.429747681 128 128 128 1.0
1487 -0.067461535 -0.047983024 0.315518506 128 128 128 1.0
1488 -0.083211281 -0.090615785 0.358161500 128 128 128 1.0
1489 0.187105997 0.054206022 0.405043444 128 128 128 1.0
1490 -0.125134819 -0.006637029 0.250630731 128 128 128 1.0
1491 0.057063423 -0.022952051 0.348344565 128 128 128 1.0
1492 -0.011792116 -0.051394278 0.223578314 128 128 128 1.0
1493 0.041655199 -0.115352186 0.250830697 128 128 128 1.0
1494 -0.028526568 -0.061203769 0.366218676 128 128 128 1.0
1495 0.076118111 0.015190464 0.361049342 128 128 128 1.0
1496 -0.002853710 0.063923385 0.197614059 128 128 128 1.0
1497 0.024651437 -0.079345938 0.246647075 128 128 128 1.0
1498 -0.004333465 -0.035703832 0.391941625 128 128 128 1.0
1499 0.083340038 -0.190772591 0.339493000 128 128 128 1.0
1500 0.151947844 0.064686549 0.460991173 128 128 128 1.0
1501 0.003423586 -0.119542721 0.255284761 128 128 128 1.0
1502 0.052218343 0.071991987 0.286761177 128 128 128 1.0
1503 -0.026180198 0.016207291 0.205271941 128 128 128 1.0
1504 -0.032715276 0.124741990 0.520135828 128 128 128 1.0
1505 -0.013370637 0.141814412 0.303288831 128 128 128 1.0
1506 -0.069528807 -0.183764711 0.421851276 128 128 128 1.0
1507 -0.034627605 0.182484753 0.371834075 128 128 128 1.0
1508 0.010398802 -0.149170014 0.465343815 128 128 128 1.0
1509 -0.033685421 -0.017535301 0.168840776 128 128 128 1.0
1510 0.069470542 0.074474288 0.296914167 128 128 128 1.0
1511 0.002832052 0.026813579 0.422458236 128 128 128 1.0
1512 0.003794046 0.133263175 0.326058622 128 128 128 1.0
1513 -0.053045454 -0.041869026 0.142464672 128 128 128 1.0
1514 -0.069060528 0.076060205 0.366706289 128 128 128 1.0
1515 -0.069963617 0.023535356 0.184081234 128 128 128 1.0
1516 -0.027200372 0.037594114 0.401448534 128 128 128 1.0
1517 -0.066351726 0.068657449 0.495211669 128 128 128 1.0
1518 -0.038497490 0.054936780 0.221062832 128 128 128 1.0
1519 -0.161290625 0.044703745 0.349157354 128 128 128 1.0
1520 0.011716305 -0.050902922 0.322256264 128 128 128 1.0
1521 0.060648577 0.133256063 0.328472900 128 128 128 1.0
1522 -0.136258510 0.097798854 0.394060081 128 128 128 1.0
1523 0.050420085 0.010434451 0.531777779 128 128 128 1.0
1524 0.001927163 0.037036558 0.197578693 128 128 128 1.0
1525 -0.050450002 -0.059073776 0.343506980 128 128 128 1.0
1526 0.023763080 -0.064083590 0.484441795 128 128 128 1.0
1527 -0.089365749 -0.040154703 0.364975986 128 128 128 1.0
1528 -0.104223288 0.041576072 0.396556393 128 128 128 1.0
1529 -0.027506123 0.148710754 0.352447743 128 128 128 1.0
1530 0.018404211 -0.080959094 0.211871592 128 128 128 1.0
1531 -0.054611949 -0.029834266 0.309448309 128 128 128 1.0
1532 0.057441032 -0.195126364 0.255132493 128 128 128 1.0
1533 -0.150288473 0.103308975 0.300675957 128 128 128 1.0
1534 -0.045303018 -0.092283301 0.417920610 128 128 128 1.0
1535 -0.037040476 0.013698027 0.183060674 128 128 128 1.0
1536 0.089707851 0.027559714 0.390145686 128 128 128 1.0
1537 0.094964900 -0.019488334 0.332606736 128 128 128 1.0
1538 0.053490825 0.030179705 0.326405603 128 128 128 1.0
1539 -0.000446262 -0.044357773 0.403305067 128 128 128 1.0
1540 0.070850035 -0.003521607 0.496586360 128 128 128 1.0
1541 -0.127156220 -0.022605449 0.483212398 128 128 128 1.0
1542 -0.037673720 -0.132123844 0.457958714 128 128 128 1.0
1543 0.039856661 -0.099588126 0.408259014 128 128 128 1.0
1544 -0.085841596 -0.111296291 0.333962635 128 128 128 1.0
1545 -0.042384049 -0.091846201 0.316860483 128 128 128 1.0
1546 -0.084363703 0.000990781 0.344337258 128 128 128 1.0
1547 0.055935897 -0.040270359 0.239405680 128 128 128 1.0
1548 -0.109606416 -0.023513605 0.469395689 128 128 128 1.0
1549 0.064262874 -0.055213990 0.421768021 128 128 128 1.0
1550 -0.096803791 0.077491682 0.315510551 128 128 128 1.0
1551 0.057878059 0.046164109 0.323994028 128 128 128 1.0
1552 0.022522030 -0.089351197 0.340321131 128 128 128 1.0
1553 0.083134016 0.324928505 0.402654199 128 128 128 1.0
1554 0.003318841 -0.084966096 0.431241408 128 128 128 1.0
1555 -0.136607453 -0.068116266 0.375015594 128 128 128 1.0
1556 -0.100420527 0.119865134 0.433984604 128 128 128 1.0
1557 -0.049296983 -0.048257332 0.240481184 128 128 128 1.0
1558 -0.116081277 0.031818354 0.396343019 128 128 128 1.0
1559 0.024502788 0.017634227 0.301345474 128 128 128 1.0
1560 0.025222438 -0.121822742 0.346969860 128 128 128 1.0
1561 0.114608259 0.102494416 0.309122396 128 128 128 1.0
1562 -0.030508083 0.106919685 0.489815058 128 128 128 1.0
1563 -0.123810215 -0.037916923 0.365126658 128 128 128 1.0
1564 0.094158123 -0.070950485 0.397908710 128 128 128 1.0
1565 -0.027778675 0.187100342 0.380879299 128 128 128 1.0
1566 -0.014463280 -0.030547015 0.431145521 128 128 128 1.0
1567 0.050912176 -0.090594651 0.363807901 128 128 128 1.0
1568 -0.111154056 -0.064331810 0.242402048 128 128 128 1.0
1569 -0.110103293 -0.058773443 0.267670349 128 128 128 1.0
1570 0.038797649 0.060399397 0.327209409 128 128 128 1.0
1571 -0.093496374 0.061007074 0.183814719 128 128 128 1.0
1572 -0.158735057 0.054843207 0.399118370 128 128 128 1.0
1573 0.074695146 -0.020919416 0.245084933 128 128 128 1.0
1574 -0.044502326 0.041960883 0.284835155 128 128 128 1.0
1575 -0.059993218 -0.115625630 0.252922961 128 128 128 1.0
1576 0.064153928 0.032929995 0.253104433 128 128 128 1.0
1577 -0.090366301 -0.048743593 0.390451492 128 128 128 1.0
1578 -0.097455615 -0.017126071 0.174095814 128 128 128 1.0
1579 -0.104581415 0.030226463 0.418562703 128 128 128 1.0
1580 -0.096477410 -0.065718200 0.410533242 128 128 128 1.0
1581 -0.034916354 -0.047060511 0.388133639 128 128 128 1.0
1582 0.012190165 0.085777387 0.410257586 128 128 128 1.0
1583 -0.049798361 -0.013077231 0.341662618 128 128 128 1.0
1584 -0.112451572 -0.081702056 0.424572051 128 128 128 1.0
1585 -0.130980844 0.076424383 0.369456823 128 128 128 1.0
1586 -0.014614791 0.039782060 0.384813493 128 128 128 1.0
1587 0.093660083 -0.035575193 0.328240485 128 128 128 1.0
1588 -0.023154091 0.147751026 0.422541094 128 128 128 1.0
1589 -0.077576998 -0.030134663 0.289993875 128 128 128 1.0
1590 -0.002239097 0.013861859 0.530786154 128 128 128 1.0
1591 -0.149821303 0.079286473 0.381786850 128 128 128 1.0
1592 -0.059596405 -0.015231760 0.307009772 128 128 128 1.0
1593 0.000839868 0.077642627 0.224997319 128 128 128 1.0
1594 0.102265074 -0.033091537 0.467493361 128 128 128 1.0
1595 0.029996652 0.095924850 0.392396190 128 128 128 1.0
1596 0.084099689 0.001556110 0.280342973 128 128 128 1.0
1597 0.051019571 0.054134007 0.515502611 128 128 128 1.0
1598 -0.163606172 -0.018669085 0.432346424 128 128 128 1.0
1599 -0.103320120 -0.021027394 0.517081422 128 128 128 1.0
1600 0.110885878 -0.073248331 0.461700912 128 128 128 1.0
1601 0.092300211 0.059700716 0.377952192 128 128 128 1.0
1602 0.016524157 -0.072290935 0.306056671 128 128 128 1.0
1603 0.056238817 0.008799813 0.495783875 128 128 128 1.0
1604 -0.029193978 -0.194832742 0.320807953 128 128 128 1.0
1605 0.019852173 0.028286335 0.353078705 128 128 128 1.0
1606 -0.068242468 0.117469713 0.294493994 128 128 128 1.0
1607 0.054697400 -0.025261720 0.251841762 128 128 128 1.0
1608 0.111038034 -0.203208796 0.279636619 128 128 128 1.0
1609 0.032525939 -0.030660271 0.408036088 128 128 128 1.0
1610 -0.010030481 -0.038284103 0.521073640 128 128 128 1.0
1611 -0.019555733 -0.014565510 0.261411775 128 128 128 1.0
1612 -0.061735054 0.050150569 0.393327343 128 128 128 1.0
1613 -0.001631606 -0.057802778 0.403217863 128 128 128 1.0
1614 -0.138040342 -0.028991756 0.328186617 128 128 128 1.0
1615 -0.069291677 0.010695835 0.295064030 128 128 128 1.0
1616 -0.065744852 0.142835650 0.407969931 128 128 128 1.0
1617 0.094702848 0.002868314 0.426000722 128 128 128 1.0
1618 0.061356825 0.095995776 0.538471970 128 128 128 1.0
1619 -0.019125391 0.019790982 0.344985997 128 128 128 1.0
1620 -0.282138508 -0.112559020 0.350739514 128 128 128 1.0
1621 0.049968200 -0.046750809 0.440214425 128 128 128 1.0
1622 0.102130861 -0.033609544 0.463426873 128 128 128 1.0
1623 0.139678264 0.036719435 0.271086586 128 128 128 1.0
1624 0.117127780 -0.013414294 0.319517170 128 128 128 1.0
1625 0.009077111 -0.043216159 0.435634441 128 128 128 1.0
1626 0.062057922 0.097433265 0.396428691 128 128 128 1.0
1627 -0.063573259 -0.012770622 0.420030373 128 128 128 1.0
1628 -0.032555327 0.233597838 0.330615822 128 128 128 1.0
1629 -0.046911149 0.091912219 0.409819019 128 128 128 1.0
1630 -0.002234057 -0.018419536 0.384120249 128 128 128 1.0
1631 0.066842628 0.061017119 0.325867010 128 128 128 1.0
1632 0.034553057 0.067516146 0.411197616 128 128 128 1.0
1633 -0.246906914 -0.071221080 0.287930763 128 128 128 1.0
1634 -0.018426027 0.014326916 0.423714752 128 128 128 1.0
1635 0.049414822 -0.010156212 0.351851384 128 128 128 1.0
1636 0.140729596 -0.049021109 0.374359136 128 128 128 1.0
1637 0.125239931 0.027673936 0.186518736 128 128 128 1.0
1638 0.029994211 -0.030988419 0.340951904 128 128 128 1.0
1639 0.084081087 0.037562738 0.328876680 128 128 128 1.0
1640 0.071360762 0.034822258 0.358411279 128 128 128 1.0
1641 0.024080637 0.020249181 0.322838066 128 128 128 1.0
1642 -0.036728003 0.002012910 0.273660461 128 128 128 1.0
1643 -0.100710690 0.104072878 0.330824591 128 128 128 1.0
1644 -0.001920177 -0.010803522 0.351872457 128 128 128 1.0
1645 0.001816876 0.005209993 0.285604338 128 128 128 1.0
1646 0.074561854 -0.055367580 0.432792415 128 128 128 1.0
1647 -0.153505155 -0.084922004 0.429369904 128 128 128 1.0
1648 -0.011852001 -0.053681679 0.380013890 128 128 128 1.0
1649 -0.083642050 0.006149760 0.172787760 128 128 128 1.0
1650 -0.036188877 -0.051987607 0.393169288 128 128 128 1.0
1651 0.070061704 -0.068363813 0.478712899 128 128 128 1.0
1652 -0.047362663 -0.164473899 0.159623317 128 128 128 1.0
1653 0.123116869 -0.007002927 0.298213725 128 128 128 1.0
1654 -0.059831857 -0.087377318 0.458178702 128 128 128 1.0
1655 -0.006710644 0.143216652 0.334079785 128 128 128 1.0
1656 -0.188023400 0.067554715 0.320544361 128 128 128 1.0
1657 -0.018966214 0.125381869 0.328928964 128 128 128 1.0
1658 0.092959459 -0.000399334 0.289841499 128 128 128 1.0
1659 0.040585182 -0.048054595 0.448263596 128 128 128 1.0
1660 0.076790921 0.005018712 0.398791763 128 128 128 1.0
1661 0.045168177 -0.022049377 0.421611715 128 128 128 1.0
1662 -0.018183327 0.049296454 0.273972361 128 128 128 1.0
1663 0.008162266 0.033287394 0.286923714 128 128 128 1.0
1664 -0.033146152 -0.042483559 0.408451998 128 128 128 1.0
1665 -0.057346655 0.035338743 0.472302003 128 128 128 1.0
1666 0.028890826 -0.128551410 0.360481019 128 128 128 1.0
1667 0.083727984 -0.022405022 0.439258561 128 128 128 1.0
1668 0.049990651 0.034257215 0.329688994 128 128 128 1.0
1669 -0.040368628 -0.019841756 0.355716519 128 128 128 1.0
1670 0.042552764 0.034379144 0.326693224 128 128 128 1.0
1671 0.006028880 0.031849725 0.220875916 128 128 128 1.0
1672 -0.060562587 -0.062994577 0.334637085 128 128 128 1.0
1673 -0.021065773 -0.019624242 0.281215100 128 128 128 1.0
1674 0.054880632 0.023314031 0.219691868 128 128 128 1.0
1675 0.002201001 -0.088948535 0.487361490 128 128 128 1.0
1676 -0.035253161 -0.030288313 0.357944133 128 128 128 1.0
1677 -0.014750217 -0.003400927 0.475072165 128 128 128 1.0
1678 0.019384060 0.068113465 0.441508458 128 128 128 1.0
1679 -0.076628772 0.136492251 0.406426424 128 128 128 1.0
1680 0.077952636 -0.067677093 0.416791962 128 128 128 1.0
1681 0.034488948 -0.041544576 0.534064838 128 128 128 1.0
1682 0.046790226 -0.017693975 0.366987136 128 128 128 1.0
1683 0.074297462 0.091909464 0.398032738 128 128 128 1.0
1684 0.098889869 0.119133208 0.252750535 128 128 128 1.0
1685 -0.037312760 -0.073612977 0.359339594 128 128 128 1.0
1686 0.117027163 0.053827977 0.267928222 128 128 128 1.0
1687 -0.021901662 0.083877946 0.309080313 128 128 128 1.0
1688 -0.006136436 0.025955920 0.205880019 128 128 128 1.0
1689 0.063967242 0.028985199 0.397082060 128 128 128 1.0
1690 -0.076692757 -0.059839459 0.303853342 128 128 128 1.0
1691 0.021645196 0.007227796 0.361825320 128 128 128 1.0
1692 0.144937355 0.106038539 0.294078278 128 128 128 1.0
1693 -0.050680188 0.138858193 0.326242282 128 128 128 1.0
1694 0.111907103 0.129489755 0.308212079 128 128 128 1.0
1695 -0.019958924 0.008226494 0.282499090 128 128 128 1.0
1696 -0.076629072 -0.030495421 0.419815807 128 128 128 1.0
1697 -0.034231441 -0.014905793 0.314380753 128 128 128 1.0
1698 -0.107586993 0.120350065 0.164221189 128 128 128 1.0
1699 -0.050725858 0.046298043 0.239932580 128 128 128 1.0
1700 0.049979621 0.101786193 0.282819988 128 128 128 1.0
1701 0.018280876 -0.087252311 0.392137385 128 128 128 1.0
1702 0.008640665 0.018808808 0.460855533 128 128 128 1.0
1703 0.039252844 0.109233528 0.402286552 128 128 128 1.0
1704 -0.094417684 0.022464573 0.390710712 128 128 128 1.0
1705 -0.114098482 0.108230919 0.356991393 128 128 128 1.0
1706 0.030994757 -0.070173066 0.357353022 128 128 128 1.0
1707 0.025534192 -0.024555263 0.357995408 128 128 128 1.0
1708 -0.168025132 0.110496582 0.262397425 128 128 128 1.0
1709 -0.173051270 -0.075308064 0.284726914 128 128 128 1.0
1710 0.045007489 -0.071598833 0.374239246 128 128 128 1.0
1711 -0.075269803 0.178047100 0.395102422 128 128 128 1.0
1712 0.157966997 -0.079702736 0.404547499 128 128 128 1.0
1713 -0.075056372 0.047705650 0.405655495 128 128 128 1.0
1714 -0.126160566 -0.089545275 0.258052031 128 128 128 1.0
1715 -0.118954872 -0.057166319 0.274474578 128 128 128 1.0
1716 -0.114346391 0.009066217 0.394866082 128 128 128 1.0
1717 -0.103980868 -0.043390905 0.351779361 128 128 128 1.0
1718 -0.017424391 -0.054957457 0.415895788 128 128 128 1.0
1719 0.068808066 0.055406552 0.334341976 128 128 128 1.0
1720 0.159904061 0.140216196 0.318802191 128 128 128 1.0
1721 -0.008674016 0.095994801 0.286952255 128 128 128 1.0
1722 0.032777662 0.004571282 0.294601689 128 128 128 1.0
1723 -0.017677990 -0.124898879 0.307374421 128 128 128 1.0
1724 -0.158825746 0.183193833 0.471228171 128 128 128 1.0
1725 0.099042784 0.024891007 0.430592906 128 128 128 1.0
1726 0.102460632 0.081936424 0.424104176 128 128 128 1.0
1727 -0.072363895 0.034874618 0.307794055 128 128 128 1.0
1728 -0.093911594 -0.090803688 0.384704952 128 128 128 1.0
1729 0.084701689 -0.108988176 0.490054328 128 128 128 1.0
1730 0.117929827 -0.030076525 0.313299880 128 128 128 1.0
1731 -0.005520331 0.078804433 0.319634148 128 128 128 1.0
1732 -0.088253769 0.027708306 0.184979475 128 128 128 1.0
1733 0.011432030 0.092864097 0.374562696 128 128 128 1.0
1734 0.062521318 0.039573839 0.408290843 128 128 128 1.0
1735 0.011656079 -0.066330257 0.332052525 128 128 128 1.0
1736 -0.005860946 0.100708906 0.480091429 128 128 128 1.0
1737 0.033648953 -0.060220271 0.291625432 128 128 128 1.0
1738 -0.015000321 0.111103800 0.376765898 128 128 128 1.0
1739 -0.004426647 -0.061201000 0.420590321 128 128 128 1.0
1740 0.023149721 -0.004062223 0.358273897 128 128 128 1.0
1741 0.134921279 -0.012830213 0.485076704 128 128 128 1.0
1742 0.099382800 0.004187301 0.420709906 128 128 128 1.0
1743 -0.009902319 -0.066270116 0.328567848 128 128 128 1.0
1744 -0.072578875 0.040915898 0.351178241 128 128 128 1.0
1745 0.045426411 0.066134810 0.100380416 128 128 128 1.0
1746 0.024919884 -0.144134181 0.363330494 128 128 128 1.0
1747 -0.070191140 0.008339020 0.459236218 128 128 128 1.0
1748 -0.136623895 0.015252554 0.343725944 128 128 128 1.0
1749 -0.151377441 0.051838494 0.352737730 128 128 128 1.0
1750 -0.040699070 -0.057742433 0.607004196 128 128 128 1.0
1751 -0.031509469 -0.144025841 0.275528130 128 128 128 1.0
1752 -0.029329087 -0.030751785 0.343691754 128 128 128 1.0
1753 -0.083758615 0.043323250 0.311297969 128 128 128 1.0
1754 -0.108858016 -0.065246897 0.319226669 128 128 128 1.0
1755 0.067889906 0.038761945 0.322958688 128 128 128 1.0
1756 0.001575756 0.017211939 0.513098026 128 128 128 1.0
1757 -0.049409910 0.037365518 0.408109434 128 128 128 1.0
1758 -0.076244351 0.015137808 0.363074640 128 128 128 1.0
1759 -0.037584240 0.045406600 0.432279405 128 128 128 1.0
1760 0.090418252 -0.015345140 0.365190170 128 128 128 1.0
1761 0.188052842 -0.088291057 0.367749565 128 128 128 1.0
1762 0.071197917 0.012009672 0.402477656 128 128 128 1.0
1763 0.013814751 0.060292511 0.452605047 128 128 128 1.0
1764 -0.017712746 0.015800534 0.345582152 128 128 128 1.0
1765 -0.032290243 -0.001570660 0.259468310 128 128 128 1.0
1766 0.059561473 0.136195976 0.486360911 128 128 128 1.0
1767 0.102068329 -0.077130004 0.471581660 128 128 128 1.0
1768 -0.057232848 -0.004244763 0.497693669 128 128 128 1.0
1769 -0.085752748 0.067304108 0.372501582 128 128 128 1.0
1770 -0.012167426 -0.070083276 0.383800294 128 128 128 1.0
1771 -0.037103369 0.083620472 0.447943165 128 128 128 1.0
1772 -0.110344569 -0.040421037 0.324473674 128 128 128 1.0
1773 -0.094536946 -0.089432301 0.357093537 128 128 128 1.0
1774 -0.016644442 -0.132147930 0.306949973 128 128 128 1.0
1775 0.041512390 -0.096499974 0.276111879 128 128 128 1.0
1776 0.127013941 0.105377301 0.220317409 128 128 128 1.0
1777 -0.108077787 0.030180214 0.254680024 128 128 128 1.0
1778 -0.020222809 -0.036102686 0.394812478 128 128 128 1.0
1779 -0.202298506 -0.176200392 0.251904632 128 128 128 1.0
1780 0.081110237 -0.012346546 0.213342384 128 128 128 1.0
1781 0.039439152 0.056614401 0.330330993 128 128 128 1.0
1782 -0.026444139 0.035010965 0.446757395 128 128 128 1.0
1783 0.012194867 0.042647735 0.346141621 128 128 128 1.0
1784 -0.030502837 -0.073274275 0.370504318 128 128 128 1.0
1785 -0.024015682 -0.019490841 0.424377371 128 128 128 1.0
1786 0.039040095 0.069607906 0.223948036 128 128 128 1.0
1787 0.044670514 -0.047189398 0.285340481 128 128 128 1.0
1788 -0.068172025 0.096911682 0.416229111 128 128 128 1.0
1789 -0.057351987 -0.091005862 0.351098376 128 128 128 1.0
1790 -0.036765749 0.132764962 0.233097531 128 128 128 1.0
1791 -0.146388334 -0.020460426 0.350858998 128 128 128 1.0
1792 0.010609424 0.060273822 0.515866851 128 128 128 1.0
1793 -0.027387416 -0.043549536 0.209260969 128 128 128 1.0
1794 0.019472450 0.068272679 0.329165002 128 128 128 1.0
1795 0.094449203 0.002423192 0.471188250 128 128 128 1.0
1796 0.026650687 -0.084572853 0.299054363 128 128 128 1.0
1797 -0.122699694 -0.138965023 0.371353193 128 128 128 1.0
1798 0.069567838 0.156340947 0.345586095 128 128 128 1.0
1799 -0.018948733 -0.088722956 0.428985003 128 128 128 1.0
1800 0.031134136 -0.047610456 0.405082470 128 128 128 1.0
1801 0.044907911 -0.149596145 0.409415511 128 128 128 1.0
1802 0.010888756 -0.031318109 0.316633580 128 128 128 1.0
1803 0.139872184 0.122877017 0.496075354 128 128 128 1.0
1804 -0.091893299 -0.052359582 0.422438788 128 128 128 1.0
1805 -0.096677402 -0.057616227 0.205659428 128 128 128 1.0
1806 0.148247347 0.085014820 0.386681053 128 128 128 1.0
1807 0.017537716 -0.033370509 0.318169796 128 128 128 1.0
1808 0.049254896 -0.056942257 0.448191613 128 128 128 1.0
1809 -0.039406328 -0.069878759 0.453840964 128 128 128 1.0
1810 -0.011518293 0.044390002 0.316804999 128 128 128 1.0
1811 -0.180008213 0.043776220 0.242265330 128 128 128 1.0
1812 0.086578391 -0.124065435 0.200810596 128 128 128 1.0
1813 0.024611117 0.034021638 0.358534934 128 128 128 1.0
1814 -0.097086324 0.071082560 0.232824923 128 128 128 1.0
1815 -0.037141029 -0.063050218 0.319785942 128 128 128 1.0
1816 0.068222427 -0.050726144 0.395151243 128 128 128 1.0
1817 0.055531701 -0.136883172 0.256673546 128 128 128 1.0
1818 -0.030668181 -0.047369721 0.374613722 128 128 128 1.0
1819 -0.154532877 0.057647293 0.409565887 128 128 128 1.0
1820 -0.013459167 -0.110644692 0.350446681 128 128 128 1.0
1821 -0.042999251 0.045331170 0.343166357 128 128 128 1.0
1822 0.058258154 -0.034665774 0.465409160 128 128 128 1.0
1823 -0.184380860 -0.081294032 0.389264993 128 128 128 1.0
1824 -0.120873274 0.058874526 0.252662429 128 128 128 1.0
1825 0.007455828 -0.073180491 0.314703579 128 128 128 1.0
1826 0.013969905 -0.008378748 0.319494411 128 128 128 1.0
1827 0.172249287 0.000676942 0.272403189 128 128 128 1.0
1828 0.074208083 0.065652934 0.447833933 128 128 128 1.0
1829 0.142980668 -0.075146901 0.434761745 128 128 128 1.0
1830 0.091167953 0.000029144 0.369613089 128 128 128 1.0
1831 -0.240222585 -0.045915959 0.493037060 128 128 128 1.0
1832 -0.142947591 -0.042855471 0.373034879 128 128 128 1.0
1833 0.046045070 0.130523387 0.208974116 128 128 128 1.0
1834 0.003421310 0.068773759 0.244908107 128 128 128 1.0
1835 -0.003175140 0.150783684 0.455320514 128 128 128 1.0
1836 0.043159865 -0.209126449 0.339573248 128 128 128 1.0
1837 0.030913645 -0.024677980 0.344764869 128 128 128 1.0
1838 0.246673895 -0.017157482 0.272429592 128 128 128 1.0
1839 0.019429384 -0.025253872 0.325220148 128 128 128 1.0
1840 -0.006967879 0.061923298 0.369000448 128 128 128 1.0
1841 -0.096115450 -0.010616387 0.387955847 128 128 128 1.0
1842 -0.037418036 0.091915504 0.412170253 128 128 128 1.0
1843 -0.079261471 0.025583518 0.508701986 128 128 128 1.0
1844 0.124814623 -0.004501759 0.421808939 128 128 128 1.0
1845 -0.053909056 -0.115846183 0.394345565 128 128 128 1.0
1846 0.019722982 0.041132065 0.348024066 128 128 128 1.0
1847 0.026077755 -0.041033169 0.387860682 128 128 128 1.0
1848 0.066646451 -0.004672793 0.415131665 128 128 128 1.0
1849 -0.141675401 -0.062897883 0.465561105 128 128 128 1.0
1850 0.140933847 0.020047721 0.341731610 128 128 128 1.0
1851 -0.101437207 0.029086078 0.412275083 128 128 128 1.0
1852 -0.118543126 0.044711873 0.389253331 128 128 128 1.0
1853 0.035269188 -0.090202140 0.393347475 128 128 128 1.0
1854 -0.119835280 0.119087665 0.360814677 128 128 128 1.0
1855 -0.093092143 0.107614896 0.442320836 128 128 128 1.0
1856 -0.052034516 0.176328334 0.269668595 128 128 128 1.0
1857 0.025073557 0.094595011 0.168346242 128 128 128 1.0
1858 0.080117039 -0.005177452 0.348744019 128 128 128 1.0
1859 -0.086148948 0.026521931 0.261217255 128 128 128 1.0
1860 -0.077476827 -0.035818976 0.251813492 128 128 128 1.0
1861 0.125818512 -0.106297472 0.289618365 128 128 128 1.0
1862 -0.025308977 0.000285651 0.413386511 128 128 128 1.0
1863 0.065464244 -0.024228700 0.319273711 128 128 128 1.0
1864 0.002802490 0.065762652 0.405798668 128 128 128 1.0
1865 -0.041309333 -0.164736188 0.521444235 128 128 128 1.0
1866 0.076114850 0.021065179 0.377235400 128 128 128 1.0
1867 -0.041727432 -0.080084630 0.323401577 128 128 128 1.0
1868 -0.017797326 -0.050019894 0.233427886 128 128 128 1.0
1869 -0.025005992 0.046124707 0.310408492 128 128 128 1.0
1870 0.001757801 -0.165658533 0.333390009 128 128 128 1.0
1871 -0.009756671 -0.098087143 0.211637210 128 128 128 1.0
1872 0.032946172 -0.064772186 0.389069219 128 128 128 1.0
1873 -0.033616601 0.049856594 0.322896347 128 128 128 1.0
1874 -0.120529498 -0.006917314 0.323738858 128 128 128 1.0
1875 0.052589725 -0.036047230 0.318554340 128 128 128 1.0
1876 0.068790272 0.093304864 0.410755522 128 128 128 1.0
1877 0.083023206 0.036336507 0.411628316 128 128 128 1.0
1878 0.070260392 0.032300791 0.355034627 128 128 128 1.0
1879 0.011372438 0.192388209 0.351094242 128 128 128 1.0
1880 -0.018944653 -0.029140774 0.347332429 128 128 128 1.0
1881 0.019536695 -0.090490462 0.191554543 128 128 128 1.0
1882 0.023620019 -0.128484252 0.370697496 128 128 128 1.0
1883 0.011249610 0.092232536 0.483615738 128 128 128 1.0
1884 0.029413765 -0.044315558 0.256016865 128 128 128 1.0
1885 -0.063341337 0.003198193 0.184451478 128 128 128 1.0
1886 0.006019619 -0.000964542 0.401555483 128 128 128 1.0
1887 -0.026769366 0.008163832 0.291109463 128 128 128 1.0
1888 -0.037122395 -0.141858748 0.359891187 128 128 128 1.0
1889 0.123899280 0.013010831 0.379266853 128 128 128 1.0
1890 -0.078530434 0.114503549 0.288638988 128 128 128 1.0
1891 0.064141919 0.008586825 0.273271114 128 128 128 1.0
1892 0.082174519 0.001230348 0.364297762 128 128 128 1.0
1893 0.036171237 -0.001720546 0.319702891 128 128 128 1.0
1894 0.037293835 -0.032380581 0.355228118 128 128 128 1.0
1895 -0.053414741 -0.119207605 0.296146115 128 128 128 1.0
1896 -0.039611347 0.001184594 0.444752104 128 128 128 1.0
1897 -0.135157612 0.010287556 0.173045922 128 128 128 1.0
1898 -0.083669070 -0.040565329 0.169754264 128 128 128 1.0
1899 -0.148617589 0.012323409 0.356220739 128 128 128 1.0
1900 -0.009103091 -0.064297940 0.522349626 128 128 128 1.0
1901 -0.012899718 -0.068968869 0.484271880 128 128 128 1.0
1902 0.049144766 -0.029675250 0.445414646 128 128 128 1.0
1903 0.012533383 0.051450965 0.368784349 128 128 128 1.0
1904 -0.082274027 0.077696371 0.362836651 128 128 128 1.0
1905 -0.080751430 -0.061033753 0.426427896 128 128 128 1.0
1906 -0.029549827 0.003714394 0.402362253 128 128 128 1.0
1907 0.010266381 -0.122128508 0.400992709 128 128 128 1.0
1908 0.075070413 0.069331430 0.479344968 128 128 128 1.0
1909 0.029142346 0.062162807 0.477143891 128 128 128 1.0
1910 -0.023258229 0.138909976 0.488771703 128 128 128 1.0
1911 0.062647176 0.147175009 0.418155139 128 128 128 1.0
1912 -0.070456238 0.090991156 0.376111879 128 128 128 1.0
1913 0.033078391 0.012368268 0.458768304 128 128 128 1.0
1914 0.044189183 -0.055664046 0.388865115 128 128 128 1.0
1915 0.058341450 -0.058046742 0.315258636 128 128 128 1.0
1916 -0.030644746 -0.048586731 0.377903398 128 128 128 1.0
1917 0.081419665 0.151389523 0.445574940 128 128 128 1.0
1918 0.081766822 0.091455935 0.456822789 128 128 128 1.0
1919 -0.030136846 0.055488344 0.375778846 128 128 128 1.0
1920 -0.010347751 -0.036396094 0.309577768 128 128 128 1.0
1921 -0.021439220 -0.098781638 0.391736989 128 128 128 1.0
1922 -0.001750793 0.008481952 0.377095215 128 128 128 1.0
1923 0.057993763 -0.047340445 0.341497969 128 128 128 1.0
1924 -0.128680206 -0.177588664 0.194760527 128 128 128 1.0
1925 0.122945666 -0.146110245 0.387775680 128 128 128 1.0
1926 0.118177602 -0.036621547 0.480383890 128 128 128 1.0
1927 0.147782068 0.075627078 0.539808408 128 128 128 1.0
