ply
format ascii 1.0
element vertex 783
property float x
property float y
property float z
property float nx
property float ny
property float nz
property uchar red
property uchar green
property uchar blue
end_header
0.081842079 -0.011338229 0.433828417 0.0 0.0 0.0 128 128 128
0.001436878 -0.007463078 0.395885036 0.0 0.0 0.0 128 128 128
0.084671422 -0.027314756 0.330499070 0.0 0.0 0.0 128 128 128
-0.012866512 0.006621530 0.277967343 0.0 0.0 0.0 128 128 128
0.082240485 -0.032032771 0.386995477 0.0 0.0 0.0 128 128 128
-0.066037806 0.028704316 0.381327441 0.0 0.0 0.0 128 128 128
-0.033654513 0.161671155 0.379683197 0.0 0.0 0.0 128 128 128
0.142154314 0.076731114 0.297018015 0.0 0.0 0.0 128 128 128
-0.030574945 0.034888165 0.354893803 0.0 0.0 0.0 128 128 128
0.003956891 -0.022896396 0.205321892 0.0 0.0 0.0 128 128 128
-0.018034611 -0.177449717 0.379745566 0.0 0.0 0.0 128 128 128
-0.058084623 -0.057233338 0.332455696 0.0 0.0 0.0 128 128 128
0.021813788 -0.114560494 0.210111905 0.0 0.0 0.0 128 128 128
-0.085285270 -0.163338202 0.272652031 0.0 0.0 0.0 128 128 128
0.127270642 -0.084526873 0.402112414 0.0 0.0 0.0 128 128 128
-0.109730785 0.023929612 0.324421295 0.0 0.0 0.0 128 128 128
-0.004785023 0.045502208 0.490499210 0.0 0.0 0.0 128 128 128
0.015576508 0.009948716 0.272130583 0.0 0.0 0.0 128 128 128
0.046667172 -0.019685786 0.416560563 0.0 0.0 0.0 128 128 128
-0.003496516 0.139268456 0.191366680 0.0 0.0 0.0 128 128 128
-0.023727949 0.070518531 0.321944624 0.0 0.0 0.0 128 128 128
-0.063373846 -0.021270448 0.239605700 0.0 0.0 0.0 128 128 128
0.009516302 0.195236947 0.441602520 0.0 0.0 0.0 128 128 128
-0.088720729 -0.069867287 0.317621775 0.0 0.0 0.0 128 128 128
0.080353290 -0.065718961 0.294781486 0.0 0.0 0.0 128 128 128
0.070779955 0.069172206 0.320094827 0.0 0.0 0.0 128 128 128
-0.089421073 -0.123979586 0.294080790 0.0 0.0 0.0 128 128 128
-0.178442312 0.059985591 0.299597544 0.0 0.0 0.0 128 128 128
0.038503493 0.149465991 0.443839657 0.0 0.0 0.0 128 128 128
-0.092090787 0.069539919 0.442628562 0.0 0.0 0.0 128 128 128
-0.059708521 -0.076263754 0.341224648 0.0 0.0 0.0 128 128 128
-0.128113868 0.117658796 0.157570897 0.0 0.0 0.0 128 128 128
-0.088544593 -0.021565213 0.331833033 0.0 0.0 0.0 128 128 128
0.013289934 0.021715885 0.332911039 0.0 0.0 0.0 128 128 128
0.090950906 -0.171150094 0.349986839 0.0 0.0 0.0 128 128 128
-0.057166753 0.010601075 0.367660787 0.0 0.0 0.0 128 128 128
-0.072946310 -0.051275920 0.413406938 0.0 0.0 0.0 128 128 128
0.027924501 -0.054419875 0.513191277 0.0 0.0 0.0 128 128 128
0.184734212 -0.116996998 0.374143597 0.0 0.0 0.0 128 128 128
0.200719555 0.062711890 0.367684811 0.0 0.0 0.0 128 128 128
-0.016644547 -0.043295543 0.332998824 0.0 0.0 0.0 128 128 128
-0.044058353 0.059592669 0.318147708 0.0 0.0 0.0 128 128 128
-0.035292121 -0.096172855 0.346032810 0.0 0.0 0.0 128 128 128
-0.071529734 -0.014460013 0.433345244 0.0 0.0 0.0 128 128 128
0.029273991 0.040378024 0.378487272 0.0 0.0 0.0 128 128 128
0.004734058 -0.010186258 0.325375503 0.0 0.0 0.0 128 128 128
0.060729361 -0.086739185 0.457257807 0.0 0.0 0.0 128 128 128
0.002726245 -0.059896031 0.310868314 0.0 0.0 0.0 128 128 128
-0.054159232 0.012816520 0.292572556 0.0 0.0 0.0 128 128 128
0.091370496 -0.062531119 0.168198246 0.0 0.0 0.0 128 128 128
-0.058479879 -0.160681694 0.346810492 0.0 0.0 0.0 128 128 128
0.084732638 0.051820784 0.242992840 0.0 0.0 0.0 128 128 128
-0.060980423 0.142290683 0.375480913 0.0 0.0 0.0 128 128 128
0.000329495 0.084485005 0.546219290 0.0 0.0 0.0 128 128 128
0.103725862 0.011153220 0.378375054 0.0 0.0 0.0 128 128 128
0.049366383 -0.049015880 0.265302442 0.0 0.0 0.0 128 128 128
0.004195927 -0.075776898 0.345083006 0.0 0.0 0.0 128 128 128
0.007689843 0.187282986 0.281916000 0.0 0.0 0.0 128 128 128
-0.009743115 -0.013144231 0.384984843 0.0 0.0 0.0 128 128 128
0.083737947 -0.039238680 0.284291838 0.0 0.0 0.0 128 128 128
-0.131256849 -0.074096360 0.392915267 0.0 0.0 0.0 128 128 128
0.003651763 -0.081234720 0.320178602 0.0 0.0 0.0 128 128 128
0.002517836 0.040294315 0.302528452 0.0 0.0 0.0 128 128 128
-0.020035205 -0.145474779 0.257889136 0.0 0.0 0.0 128 128 128
0.129417253 -0.175051254 0.322975796 0.0 0.0 0.0 128 128 128
0.017535858 -0.029947940 0.285347398 0.0 0.0 0.0 128 128 128
-0.004886283 -0.000397232 0.343430608 0.0 0.0 0.0 128 128 128
-0.150216970 -0.011792290 0.281590985 0.0 0.0 0.0 128 128 128
-0.043818870 0.018157981 0.401258300 0.0 0.0 0.0 128 128 128
0.071742187 -0.039713045 0.423920222 0.0 0.0 0.0 128 128 128
0.093898203 0.090931034 0.461181435 0.0 0.0 0.0 128 128 128
-0.011654600 -0.013930553 0.416004062 0.0 0.0 0.0 128 128 128
-0.109321945 0.016754324 0.307555281 0.0 0.0 0.0 128 128 128
-0.029503124 -0.139321156 0.278756456 0.0 0.0 0.0 128 128 128
-0.001639514 0.071076254 0.429202127 0.0 0.0 0.0 128 128 128
-0.006426118 -0.015143069 0.283545665 0.0 0.0 0.0 128 128 128
0.032188520 -0.019806240 0.398470763 0.0 0.0 0.0 128 128 128
0.140134944 -0.002589997 0.230211642 0.0 0.0 0.0 128 128 128
-0.068868035 -0.116651795 0.254231225 0.0 0.0 0.0 128 128 128
0.104421658 0.018132766 0.228386045 0.0 0.0 0.0 128 128 128
0.052290573 0.100829990 0.321210035 0.0 0.0 0.0 128 128 128
-0.054079267 -0.026990217 0.372768521 0.0 0.0 0.0 128 128 128
0.051197612 0.094577347 0.446998256 0.0 0.0 0.0 128 128 128
0.094832308 0.108953715 0.402911023 0.0 0.0 0.0 128 128 128
-0.122472528 -0.010477138 0.375113641 0.0 0.0 0.0 128 128 128
-0.030650101 0.072900868 0.321182882 0.0 0.0 0.0 128 128 128
-0.074059762 0.115543920 0.403280345 0.0 0.0 0.0 128 128 128
0.017540303 0.074136727 0.435002739 0.0 0.0 0.0 128 128 128
0.027282865 -0.196612914 0.295952844 0.0 0.0 0.0 128 128 128
-0.036526330 -0.078736072 0.365894195 0.0 0.0 0.0 128 128 128
0.095376171 -0.038792447 0.259213386 0.0 0.0 0.0 128 128 128
0.162242785 -0.036115008 0.251362806 0.0 0.0 0.0 128 128 128
0.019014180 0.034054607 0.293595993 0.0 0.0 0.0 128 128 128
0.063236286 -0.038985555 0.276163927 0.0 0.0 0.0 128 128 128
0.014287269 0.061661518 0.299291881 0.0 0.0 0.0 128 128 128
0.026450044 -0.007479331 0.575954692 0.0 0.0 0.0 128 128 128
-0.056684774 0.110733728 0.345812297 0.0 0.0 0.0 128 128 128
-0.010140960 0.057733209 0.421519245 0.0 0.0 0.0 128 128 128
0.101361251 0.026292139 0.301968289 0.0 0.0 0.0 128 128 128
-0.043011688 0.040772255 0.396471990 0.0 0.0 0.0 128 128 128
0.111844075 0.033474436 0.434813461 0.0 0.0 0.0 128 128 128
0.121341683 0.013184044 0.231155308 0.0 0.0 0.0 128 128 128
-0.094342167 -0.115024229 0.477327230 0.0 0.0 0.0 128 128 128
-0.067792688 0.098547325 0.396858553 0.0 0.0 0.0 128 128 128
0.137221530 0.080247506 0.341810379 0.0 0.0 0.0 128 128 128
-0.016002436 0.006813418 0.364020876 0.0 0.0 0.0 128 128 128
-0.042459494 -0.002610264 0.478745605 0.0 0.0 0.0 128 128 128
-0.136171065 0.020679051 0.277443776 0.0 0.0 0.0 128 128 128
0.014962967 0.067188462 0.345391186 0.0 0.0 0.0 128 128 128
0.061838954 -0.127187152 0.438559129 0.0 0.0 0.0 128 128 128
-0.048250339 0.049792646 0.364595848 0.0 0.0 0.0 128 128 128
-0.206844974 -0.060485130 0.367640669 0.0 0.0 0.0 128 128 128
0.124318087 0.022981463 0.370615670 0.0 0.0 0.0 128 128 128
-0.113014727 0.114491736 0.494566160 0.0 0.0 0.0 128 128 128
0.002286003 -0.017580564 0.220476023 0.0 0.0 0.0 128 128 128
0.070665685 0.216182346 0.407369046 0.0 0.0 0.0 128 128 128
0.101096281 0.043366983 0.271198729 0.0 0.0 0.0 128 128 128
0.106933810 -0.098765992 0.333146808 0.0 0.0 0.0 128 128 128
0.022308140 0.070632773 0.383278853 0.0 0.0 0.0 128 128 128
0.030946760 -0.060919045 0.246850287 0.0 0.0 0.0 128 128 128
0.004918453 -0.056815582 0.245377150 0.0 0.0 0.0 128 128 128
-0.101275718 -0.039210278 0.201793691 0.0 0.0 0.0 128 128 128
-0.107797496 -0.130810954 0.364580757 0.0 0.0 0.0 128 128 128
0.032638738 0.160571277 0.230197616 0.0 0.0 0.0 128 128 128
-0.054367757 0.073008911 0.332658096 0.0 0.0 0.0 128 128 128
-0.026159835 0.136733576 0.322927507 0.0 0.0 0.0 128 128 128
-0.092495590 -0.105355197 0.376855546 0.0 0.0 0.0 128 128 128
0.024419328 -0.109736190 0.271168299 0.0 0.0 0.0 128 128 128
0.042777011 0.046181342 0.298542233 0.0 0.0 0.0 128 128 128
0.049777296 0.045748367 0.207353460 0.0 0.0 0.0 128 128 128
-0.024965100 0.033210047 0.304153944 0.0 0.0 0.0 128 128 128
-0.171114550 -0.022641178 0.410167453 0.0 0.0 0.0 128 128 128
0.126432447 -0.175262613 0.559065708 0.0 0.0 0.0 128 128 128
-0.090170906 0.076557670 0.448735846 0.0 0.0 0.0 128 128 128
0.078641384 0.011969478 0.257086587 0.0 0.0 0.0 128 128 128
0.050124703 -0.057218654 0.148184405 0.0 0.0 0.0 128 128 128
0.226311891 0.056648162 0.495446170 0.0 0.0 0.0 128 128 128
-0.072929825 0.117400226 0.477189533 0.0 0.0 0.0 128 128 128
0.124363962 -0.001696507 0.253803037 0.0 0.0 0.0 128 128 128
-0.014185025 -0.176221529 0.213839009 0.0 0.0 0.0 128 128 128
0.007355102 -0.079311877 0.336844252 0.0 0.0 0.0 128 128 128
-0.008719980 0.154458164 0.453810126 0.0 0.0 0.0 128 128 128
-0.003589807 0.096711963 0.287622948 0.0 0.0 0.0 128 128 128
-0.026951762 0.072817945 0.250667154 0.0 0.0 0.0 128 128 128
-0.022318458 -0.105667669 0.359397793 0.0 0.0 0.0 128 128 128
0.130601260 -0.060167751 0.368070360 0.0 0.0 0.0 128 128 128
-0.071785752 -0.091963915 0.251132038 0.0 0.0 0.0 128 128 128
0.116380167 0.188994838 0.388643496 0.0 0.0 0.0 128 128 128
-0.057303438 0.056391331 0.323254118 0.0 0.0 0.0 128 128 128
0.064111868 0.023279491 0.372376332 0.0 0.0 0.0 128 128 128
0.048582085 -0.046359491 0.317650574 0.0 0.0 0.0 128 128 128
-0.137699647 -0.035349555 0.236213385 0.0 0.0 0.0 128 128 128
-0.011574496 -0.076610476 0.358098754 0.0 0.0 0.0 128 128 128
0.036259145 -0.113609806 0.284937672 0.0 0.0 0.0 128 128 128
-0.075464952 0.059719474 0.486508962 0.0 0.0 0.0 128 128 128
0.068122929 -0.027953514 0.467200511 0.0 0.0 0.0 128 128 128
-0.121128619 0.119948644 0.297502863 0.0 0.0 0.0 128 128 128
-0.222423457 0.212064379 0.476241846 0.0 0.0 0.0 128 128 128
-0.082550698 0.013520692 0.332840044 0.0 0.0 0.0 128 128 128
0.008177664 -0.118662915 0.295480481 0.0 0.0 0.0 128 128 128
0.037436903 0.017815694 0.445939081 0.0 0.0 0.0 128 128 128
0.006380021 0.187937735 0.292741475 0.0 0.0 0.0 128 128 128
0.020746591 -0.153305432 0.249749350 0.0 0.0 0.0 128 128 128
0.106282077 -0.075424221 0.392454014 0.0 0.0 0.0 128 128 128
-0.004941669 -0.083563917 0.322140058 0.0 0.0 0.0 128 128 128
-0.041138691 -0.038989269 0.410288657 0.0 0.0 0.0 128 128 128
0.052187564 -0.046194056 0.277431776 0.0 0.0 0.0 128 128 128
0.022586987 -0.008001233 0.432262597 0.0 0.0 0.0 128 128 128
0.212423486 0.067433955 0.347221578 0.0 0.0 0.0 128 128 128
-0.013763518 -0.068535530 0.277466177 0.0 0.0 0.0 128 128 128
-0.080273241 -0.031626814 0.315828524 0.0 0.0 0.0 128 128 128
0.059498457 -0.031919921 0.334204023 0.0 0.0 0.0 128 128 128
-0.097461922 0.131566050 0.390558913 0.0 0.0 0.0 128 128 128
0.143109854 0.063750863 0.469170876 0.0 0.0 0.0 128 128 128
-0.019879002 0.057372865 0.566440510 0.0 0.0 0.0 128 128 128
-0.097882757 0.094101516 0.485835537 0.0 0.0 0.0 128 128 128
0.033690206 0.061216995 0.452370757 0.0 0.0 0.0 128 128 128
-0.053623613 0.033392938 0.278959605 0.0 0.0 0.0 128 128 128
-0.055299763 -0.050525020 0.338298538 0.0 0.0 0.0 128 128 128
0.011982051 0.037042653 0.233927305 0.0 0.0 0.0 128 128 128
0.162142034 0.094682317 0.409485022 0.0 0.0 0.0 128 128 128
-0.029322431 -0.007304533 0.394893314 0.0 0.0 0.0 128 128 128
0.033715199 -0.137684995 0.410742341 0.0 0.0 0.0 128 128 128
0.239059807 -0.151463196 0.431574210 0.0 0.0 0.0 128 128 128
0.030280158 -0.009153218 0.462561259 0.0 0.0 0.0 128 128 128
-0.097087705 0.013367599 0.470156372 0.0 0.0 0.0 128 128 128
-0.016167884 -0.034341043 0.359438178 0.0 0.0 0.0 128 128 128
-0.036540428 0.127133498 0.275452178 0.0 0.0 0.0 128 128 128
0.071754502 -0.102934704 0.405005792 0.0 0.0 0.0 128 128 128
-0.008623958 -0.212412958 0.349508548 0.0 0.0 0.0 128 128 128
-0.087742699 -0.036542521 0.476524144 0.0 0.0 0.0 128 128 128
-0.091886487 -0.087196034 0.468470629 0.0 0.0 0.0 128 128 128
0.009535754 0.126778473 0.376608590 0.0 0.0 0.0 128 128 128
-0.072565174 -0.005453390 0.451130274 0.0 0.0 0.0 128 128 128
0.077400418 0.000072923 0.354011494 0.0 0.0 0.0 128 128 128
-0.009256035 -0.047573374 0.508870380 0.0 0.0 0.0 128 128 128
0.000591454 -0.093032730 0.310766596 0.0 0.0 0.0 128 128 128
0.059745589 0.052764755 0.338720077 0.0 0.0 0.0 128 128 128
-0.054980557 0.001966570 0.212344996 0.0 0.0 0.0 128 128 128
-0.107075457 0.065711968 0.310578496 0.0 0.0 0.0 128 128 128
0.030838715 0.100207403 0.403432999 0.0 0.0 0.0 128 128 128
0.001695172 0.175038549 0.404919904 0.0 0.0 0.0 128 128 128
-0.029156828 0.060215738 0.383547720 0.0 0.0 0.0 128 128 128
-0.070398878 0.006001216 0.336430064 0.0 0.0 0.0 128 128 128
-0.161724187 -0.014180117 0.326715572 0.0 0.0 0.0 128 128 128
-0.036051147 -0.135287744 0.320827999 0.0 0.0 0.0 128 128 128
-0.003264167 0.008383643 0.256611232 0.0 0.0 0.0 128 128 128
0.052018133 -0.099973709 0.331596703 0.0 0.0 0.0 128 128 128
0.107332698 -0.056940584 0.307999866 0.0 0.0 0.0 128 128 128
0.088268246 -0.031577080 0.325579489 0.0 0.0 0.0 128 128 128
0.018188695 0.086273529 0.168829927 0.0 0.0 0.0 128 128 128
-0.068093692 -0.082793075 0.260846922 0.0 0.0 0.0 128 128 128
-0.070222678 -0.068923865 0.374737284 0.0 0.0 0.0 128 128 128
-0.072970216 0.010046742 0.382913646 0.0 0.0 0.0 128 128 128
-0.059844254 0.010710094 0.484201529 0.0 0.0 0.0 128 128 128
0.026404317 -0.052238354 0.344678351 0.0 0.0 0.0 128 128 128
-0.075035363 0.022170897 0.420595931 0.0 0.0 0.0 128 128 128
-0.067035544 -0.017115507 0.440983691 0.0 0.0 0.0 128 128 128
-0.040678857 0.015368200 0.266309536 0.0 0.0 0.0 128 128 128
-0.066942862 -0.041877055 0.524105602 0.0 0.0 0.0 128 128 128
-0.032724011 -0.042396695 0.304944518 0.0 0.0 0.0 128 128 128
-0.013248188 0.052474409 0.365159235 0.0 0.0 0.0 128 128 128
0.164625174 0.017103556 0.465792332 0.0 0.0 0.0 128 128 128
0.022136889 0.048446520 0.234512005 0.0 0.0 0.0 128 128 128
-0.010164756 -0.005515819 0.330563439 0.0 0.0 0.0 128 128 128
-0.172230290 0.070449957 0.319027974 0.0 0.0 0.0 128 128 128
-0.035045706 -0.020413717 0.331753665 0.0 0.0 0.0 128 128 128
0.032567874 -0.101682580 0.275516635 0.0 0.0 0.0 128 128 128
0.023250664 0.011646625 0.319867615 0.0 0.0 0.0 128 128 128
-0.045912992 -0.066753976 0.345331587 0.0 0.0 0.0 128 128 128
0.094458598 -0.084644060 0.471865444 0.0 0.0 0.0 128 128 128
0.067518517 -0.036237099 0.412645990 0.0 0.0 0.0 128 128 128
-0.117272273 -0.138525996 0.246817420 0.0 0.0 0.0 128 128 128
-0.032779717 -0.026032798 0.308788607 0.0 0.0 0.0 128 128 128
0.007953815 -0.170812313 0.389627953 0.0 0.0 0.0 128 128 128
-0.113544046 -0.052868048 0.316971963 0.0 0.0 0.0 128 128 128
-0.092496851 -0.109679973 0.269513467 0.0 0.0 0.0 128 128 128
-0.000953891 0.047198574 0.395138814 0.0 0.0 0.0 128 128 128
-0.079559283 -0.063326172 0.276351747 0.0 0.0 0.0 128 128 128
0.035984985 -0.162993614 0.449067141 0.0 0.0 0.0 128 128 128
-0.038784390 -0.062681989 0.377156304 0.0 0.0 0.0 128 128 128
0.082609524 0.027406661 0.434219557 0.0 0.0 0.0 128 128 128
0.010748705 0.098371088 0.449612803 0.0 0.0 0.0 128 128 128
-0.007958303 0.115136471 0.363178696 0.0 0.0 0.0 128 128 128
0.006951458 -0.073717894 0.326897600 0.0 0.0 0.0 128 128 128
0.062206620 -0.105011753 0.401969921 0.0 0.0 0.0 128 128 128
0.027889276 0.022204913 0.173480624 0.0 0.0 0.0 128 128 128
-0.008259434 0.051860801 0.288963603 0.0 0.0 0.0 128 128 128
0.007224536 -0.190245862 0.403711443 0.0 0.0 0.0 128 128 128
-0.052994625 0.069708556 0.202577098 0.0 0.0 0.0 128 128 128
0.055381391 -0.018955143 0.414608304 0.0 0.0 0.0 128 128 128
-0.074056783 -0.049476562 0.529396108 0.0 0.0 0.0 128 128 128
-0.066396172 -0.056482177 0.327873437 0.0 0.0 0.0 128 128 128
-0.081804698 0.095236543 0.488001065 0.0 0.0 0.0 128 128 128
-0.056328485 -0.138082574 0.443758184 0.0 0.0 0.0 128 128 128
0.088671241 0.065732735 0.442520915 0.0 0.0 0.0 128 128 128
-0.069402021 -0.013479713 0.239271232 0.0 0.0 0.0 128 128 128
-0.113453026 0.078488105 0.296246939 0.0 0.0 0.0 128 128 128
0.182365728 0.005934409 0.298766015 0.0 0.0 0.0 128 128 128
0.063830816 0.144100989 0.388890477 0.0 0.0 0.0 128 128 128
-0.097371614 0.029680224 0.460047845 0.0 0.0 0.0 128 128 128
-0.039459276 -0.061891357 0.431315833 0.0 0.0 0.0 128 128 128
0.011197419 -0.088203368 0.319620272 0.0 0.0 0.0 128 128 128
-0.060452999 0.023701493 0.358774761 0.0 0.0 0.0 128 128 128
0.092035763 0.056773203 0.224917280 0.0 0.0 0.0 128 128 128
0.032559243 0.071754586 0.386470341 0.0 0.0 0.0 128 128 128
0.082404773 -0.043966159 0.273933454 0.0 0.0 0.0 128 128 128
0.074405602 -0.085237174 0.177236997 0.0 0.0 0.0 128 128 128
0.082023996 -0.057934794 0.325514704 0.0 0.0 0.0 128 128 128
-0.111838348 -0.106042207 0.257472893 0.0 0.0 0.0 128 128 128
-0.028851988 0.029599926 0.166175103 0.0 0.0 0.0 128 128 128
0.060173854 -0.094559853 0.264695059 0.0 0.0 0.0 128 128 128
0.054228431 -0.005970715 0.227085297 0.0 0.0 0.0 128 128 128
0.147567415 -0.068849728 0.369785276 0.0 0.0 0.0 128 128 128
0.015991228 0.112906173 0.313546493 0.0 0.0 0.0 128 128 128
0.080647175 -0.059351162 0.439770309 0.0 0.0 0.0 128 128 128
-0.061038770 -0.028976728 0.501677324 0.0 0.0 0.0 128 128 128
0.025357711 0.008780718 0.529363942 0.0 0.0 0.0 128 128 128
0.028908534 -0.065290985 0.408770240 0.0 0.0 0.0 128 128 128
-0.094534473 0.090265323 0.446478221 0.0 0.0 0.0 128 128 128
-0.045836734 -0.050232148 0.364120341 0.0 0.0 0.0 128 128 128
0.001132412 -0.078215009 0.395447029 0.0 0.0 0.0 128 128 128
-0.163350056 -0.034628757 0.317684723 0.0 0.0 0.0 128 128 128
-0.021861244 0.024577912 0.251758206 0.0 0.0 0.0 128 128 128
0.047081207 -0.014412321 0.297982711 0.0 0.0 0.0 128 128 128
-0.109346091 -0.094648742 0.378825982 0.0 0.0 0.0 128 128 128
-0.077107929 0.005135896 0.434958636 0.0 0.0 0.0 128 128 128
0.082611409 0.124831757 0.326296534 0.0 0.0 0.0 128 128 128
-0.086811926 0.081642041 0.374768308 0.0 0.0 0.0 128 128 128
0.089916052 0.000884486 0.445651682 0.0 0.0 0.0 128 128 128
0.067710994 0.057313672 0.390281830 0.0 0.0 0.0 128 128 128
0.031815921 0.018642865 0.368072499 0.0 0.0 0.0 128 128 128
0.079215568 -0.040958374 0.488854811 0.0 0.0 0.0 128 128 128
-0.008499404 0.078830576 0.342780705 0.0 0.0 0.0 128 128 128
-0.019733280 0.162579319 0.325252417 0.0 0.0 0.0 128 128 128
-0.102177341 -0.057126573 0.324621764 0.0 0.0 0.0 128 128 128
0.172415348 0.016540475 0.424777072 0.0 0.0 0.0 128 128 128
-0.080127997 0.028208663 0.403718268 0.0 0.0 0.0 128 128 128
0.144130156 -0.055701636 0.398279157 0.0 0.0 0.0 128 128 128
0.024206713 -0.081737177 0.348443501 0.0 0.0 0.0 128 128 128
-0.021077993 -0.186029234 0.397893530 0.0 0.0 0.0 128 128 128
0.043219474 -0.035114784 0.242915044 0.0 0.0 0.0 128 128 128
0.118390469 0.021279943 0.431336104 0.0 0.0 0.0 128 128 128
0.112825744 -0.041672543 0.414972363 0.0 0.0 0.0 128 128 128
-0.019291921 -0.005003891 0.343150751 0.0 0.0 0.0 128 128 128
-0.000105515 0.089116816 0.359906202 0.0 0.0 0.0 128 128 128
-0.012298620 -0.022122979 0.377305132 0.0 0.0 0.0 128 128 128
-0.071589445 -0.040212674 0.345817554 0.0 0.0 0.0 128 128 128
-0.045267865 -0.009478092 0.301137851 0.0 0.0 0.0 128 128 128
0.160316622 0.106324859 0.385996173 0.0 0.0 0.0 128 128 128
-0.004289481 0.175261133 0.375836233 0.0 0.0 0.0 128 128 128
-0.006947641 0.024250110 0.374475457 0.0 0.0 0.0 128 128 128
0.112825417 -0.001517175 0.517945986 0.0 0.0 0.0 128 128 128
-0.070561701 0.055524017 0.269853858 0.0 0.0 0.0 128 128 128
0.145368077 -0.026445235 0.345344858 0.0 0.0 0.0 128 128 128
0.073938953 0.100427255 0.261049853 0.0 0.0 0.0 128 128 128
-0.027692719 -0.111593862 0.360984412 0.0 0.0 0.0 128 128 128
-0.008109803 -0.027914722 0.295243093 0.0 0.0 0.0 128 128 128
-0.030872517 -0.059711627 0.392316947 0.0 0.0 0.0 128 128 128
0.121276004 -0.154457929 0.340722599 0.0 0.0 0.0 128 128 128
-0.033453742 0.039389487 0.273858639 0.0 0.0 0.0 128 128 128
-0.011714866 -0.083167375 0.405735827 0.0 0.0 0.0 128 128 128
0.007941970 -0.012917965 0.379615034 0.0 0.0 0.0 128 128 128
-0.019718664 -0.124305679 0.397658433 0.0 0.0 0.0 128 128 128
0.023061614 -0.012326368 0.428793994 0.0 0.0 0.0 128 128 128
0.097479644 -0.087382611 0.287513914 0.0 0.0 0.0 128 128 128
0.123782808 0.113508149 0.290928550 0.0 0.0 0.0 128 128 128
-0.094456804 -0.051005404 0.310150687 0.0 0.0 0.0 128 128 128
-0.126725267 0.002493380 0.247585687 0.0 0.0 0.0 128 128 128
-0.096831172 0.073288514 0.295344858 0.0 0.0 0.0 128 128 128
-0.005717695 0.050327708 0.415057926 0.0 0.0 0.0 128 128 128
-0.026961610 0.003529398 0.283967521 0.0 0.0 0.0 128 128 128
0.139790376 0.051995985 0.261740818 0.0 0.0 0.0 128 128 128
0.000324638 0.057084135 0.388352877 0.0 0.0 0.0 128 128 128
0.146333609 0.109785529 0.306855483 0.0 0.0 0.0 128 128 128
-0.007134440 -0.102523311 0.369956239 0.0 0.0 0.0 128 128 128
0.012081685 0.216278629 0.357806008 0.0 0.0 0.0 128 128 128
-0.167460190 -0.053766919 0.358987937 0.0 0.0 0.0 128 128 128
-0.100481223 -0.069376615 0.320749135 0.0 0.0 0.0 128 128 128
0.027344931 -0.013227361 0.278861401 0.0 0.0 0.0 128 128 128
0.063014499 -0.043170996 0.310055293 0.0 0.0 0.0 128 128 128
-0.110372127 -0.062881259 0.402141728 0.0 0.0 0.0 128 128 128
-0.129412413 -0.005693896 0.407418002 0.0 0.0 0.0 128 128 128
-0.030168689 0.019183241 0.260656479 0.0 0.0 0.0 128 128 128
0.104822232 0.088084027 0.368839927 0.0 0.0 0.0 128 128 128
-0.140406309 -0.083676987 0.428136245 0.0 0.0 0.0 128 128 128
0.137049687 0.023729235 0.449785515 0.0 0.0 0.0 128 128 128
-0.048620936 -0.015150973 0.350091832 0.0 0.0 0.0 128 128 128
0.033847740 -0.122304767 0.425253347 0.0 0.0 0.0 128 128 128
0.105803732 -0.091898812 0.241572826 0.0 0.0 0.0 128 128 128
0.028044809 -0.052344952 0.160333625 0.0 0.0 0.0 128 128 128
0.064686681 0.012447553 0.311868240 0.0 0.0 0.0 128 128 128
0.169075543 0.011112340 0.289725595 0.0 0.0 0.0 128 128 128
0.008092145 -0.083205541 0.289063458 0.0 0.0 0.0 128 128 128
0.030909024 -0.044335856 0.313922074 0.0 0.0 0.0 128 128 128
0.133515589 0.068771903 0.414226066 0.0 0.0 0.0 128 128 128
0.042305336 0.038736125 0.466526792 0.0 0.0 0.0 128 128 128
-0.001563679 0.148441130 0.273887867 0.0 0.0 0.0 128 128 128
-0.020403015 -0.110287709 0.322498158 0.0 0.0 0.0 128 128 128
0.041475395 0.116099751 0.296933797 0.0 0.0 0.0 128 128 128
0.000424358 -0.028736832 0.290912005 0.0 0.0 0.0 128 128 128
-0.095150356 0.004852893 0.211434800 0.0 0.0 0.0 128 128 128
0.008843452 0.001676155 0.297379976 0.0 0.0 0.0 128 128 128
-0.080872286 -0.110744583 0.499706273 0.0 0.0 0.0 128 128 128
-0.107357765 0.124616189 0.398013181 0.0 0.0 0.0 128 128 128
-0.029121677 -0.092566147 0.433399480 0.0 0.0 0.0 128 128 128
0.138372096 -0.074721953 0.326100384 0.0 0.0 0.0 128 128 128
0.084129901 0.026862669 0.509996876 0.0 0.0 0.0 128 128 128
-0.045611556 0.043383297 0.249925762 0.0 0.0 0.0 128 128 128
0.167671338 -0.058427265 0.173362638 0.0 0.0 0.0 128 128 128
-0.010061122 -0.011154450 0.503245721 0.0 0.0 0.0 128 128 128
-0.027105572 -0.001011500 0.397475110 0.0 0.0 0.0 128 128 128
0.126901655 -0.005058369 0.433158231 0.0 0.0 0.0 128 128 128
0.041446767 -0.023698827 0.356204355 0.0 0.0 0.0 128 128 128
0.002293910 -0.073281971 0.447094460 0.0 0.0 0.0 128 128 128
-0.110849620 0.093693514 0.426353546 0.0 0.0 0.0 128 128 128
-0.007443941 -0.061235548 0.331885993 0.0 0.0 0.0 128 128 128
0.037821973 0.059444675 0.372953517 0.0 0.0 0.0 128 128 128
0.079370907 -0.044594766 0.368766112 0.0 0.0 0.0 128 128 128
-0.125467665 0.061090133 0.362254100 0.0 0.0 0.0 128 128 128
-0.033245934 0.092923393 0.405322092 0.0 0.0 0.0 128 128 128
-0.225311539 0.003190660 0.233598080 0.0 0.0 0.0 128 128 128
0.085332790 0.199125986 0.308517319 0.0 0.0 0.0 128 128 128
0.005966332 -0.020082686 0.378065049 0.0 0.0 0.0 128 128 128
0.051563921 0.102975515 0.271006293 0.0 0.0 0.0 128 128 128
0.125730785 -0.074521108 0.372167096 0.0 0.0 0.0 128 128 128
0.092686131 0.057055899 0.274914005 0.0 0.0 0.0 128 128 128
-0.056153889 -0.036986472 0.345906458 0.0 0.0 0.0 128 128 128
0.091756260 -0.103344915 0.387336120 0.0 0.0 0.0 128 128 128
0.048797795 0.044663098 0.387304507 0.0 0.0 0.0 128 128 128
0.121465450 0.039024667 0.418556740 0.0 0.0 0.0 128 128 128
0.045083720 0.143449027 0.198015621 0.0 0.0 0.0 128 128 128
0.102568686 -0.020882462 0.327542651 0.0 0.0 0.0 128 128 128
-0.077558139 -0.149495637 0.319448412 0.0 0.0 0.0 128 128 128
-0.054983465 0.039533918 0.232219002 0.0 0.0 0.0 128 128 128
0.114529054 0.021754707 0.330167785 0.0 0.0 0.0 128 128 128
-0.056753868 -0.062976564 0.259593027 0.0 0.0 0.0 128 128 128
-0.043548858 0.000484033 0.335810924 0.0 0.0 0.0 128 128 128
-0.113159030 -0.021266259 0.278545367 0.0 0.0 0.0 128 128 128
0.012790575 0.149172150 0.400001816 0.0 0.0 0.0 128 128 128
-0.025049595 -0.129990654 0.236822055 0.0 0.0 0.0 128 128 128
-0.134937866 0.058077477 0.288794452 0.0 0.0 0.0 128 128 128
0.005008021 -0.049761135 0.357295723 0.0 0.0 0.0 128 128 128
0.112134170 -0.054795675 0.322723573 0.0 0.0 0.0 128 128 128
-0.064507513 0.069965992 0.267942625 0.0 0.0 0.0 128 128 128
-0.090638660 -0.111013037 0.237322119 0.0 0.0 0.0 128 128 128
0.037671547 0.205530002 0.270369895 0.0 0.0 0.0 128 128 128
0.076123666 0.020088563 0.261838195 0.0 0.0 0.0 128 128 128
-0.022135964 -0.018633334 0.294743849 0.0 0.0 0.0 128 128 128
0.154448550 -0.152489646 0.380482916 0.0 0.0 0.0 128 128 128
0.026521958 -0.046369296 0.361960229 0.0 0.0 0.0 128 128 128
0.070208397 0.012218811 0.383386026 0.0 0.0 0.0 128 128 128
0.055432955 -0.162564479 0.468270250 0.0 0.0 0.0 128 128 128
0.182264318 0.078463604 0.431093171 0.0 0.0 0.0 128 128 128
-0.112659758 -0.009474269 0.285036495 0.0 0.0 0.0 128 128 128
-0.046975541 0.077362953 0.285687953 0.0 0.0 0.0 128 128 128
-0.010408103 -0.152686458 0.337325440 0.0 0.0 0.0 128 128 128
0.007201341 -0.056383217 0.292409056 0.0 0.0 0.0 128 128 128
0.150913831 -0.096779543 0.265950637 0.0 0.0 0.0 128 128 128
-0.064720838 0.095905522 0.518123396 0.0 0.0 0.0 128 128 128
0.026574068 -0.057385441 0.315781411 0.0 0.0 0.0 128 128 128
0.085184985 -0.072885430 0.466235730 0.0 0.0 0.0 128 128 128
0.113326255 0.005616641 0.401690398 0.0 0.0 0.0 128 128 128
0.059979676 0.124336809 0.265883860 0.0 0.0 0.0 128 128 128
0.094496372 -0.030018240 0.288579121 0.0 0.0 0.0 128 128 128
0.008213795 -0.017147543 0.271000562 0.0 0.0 0.0 128 128 128
-0.127786434 -0.075367592 0.466188578 0.0 0.0 0.0 128 128 128
0.157005560 0.052009316 0.444874037 0.0 0.0 0.0 128 128 128
-0.041346637 -0.006172134 0.372621179 0.0 0.0 0.0 128 128 128
-0.086503167 -0.079195533 0.357774185 0.0 0.0 0.0 128 128 128
-0.025624314 -0.085084542 0.380922570 0.0 0.0 0.0 128 128 128
-0.021062344 0.081708316 0.349585512 0.0 0.0 0.0 128 128 128
-0.024024517 0.010213855 0.336241324 0.0 0.0 0.0 128 128 128
-0.053443684 -0.032156487 0.409953523 0.0 0.0 0.0 128 128 128
0.051721337 0.102898225 0.214560485 0.0 0.0 0.0 128 128 128
-0.031447254 -0.033166028 0.363741801 0.0 0.0 0.0 128 128 128
-0.036172581 -0.041054641 0.412637994 0.0 0.0 0.0 128 128 128
0.014247001 -0.093309122 0.456760506 0.0 0.0 0.0 128 128 128
0.079740164 -0.045916772 0.416502433 0.0 0.0 0.0 128 128 128
-0.058813059 0.090055873 0.332573501 0.0 0.0 0.0 128 128 128
-0.064227392 -0.029848352 0.288733570 0.0 0.0 0.0 128 128 128
0.015371173 0.014008419 0.352864237 0.0 0.0 0.0 128 128 128
-0.044529236 -0.292886545 0.357426849 0.0 0.0 0.0 128 128 128
-0.151698750 0.019535068 0.440463499 0.0 0.0 0.0 128 128 128
0.021910851 -0.031154928 0.335609792 0.0 0.0 0.0 128 128 128
-0.010645010 -0.043939330 0.303296841 0.0 0.0 0.0 128 128 128
-0.073911677 0.095052980 0.348755738 0.0 0.0 0.0 128 128 128
0.076501712 -0.020004083 0.355773420 0.0 0.0 0.0 128 128 128
-0.013630612 0.037026884 0.416130852 0.0 0.0 0.0 128 128 128
0.019176370 -0.053905293 0.287603694 0.0 0.0 0.0 128 128 128
0.132733643 -0.022403014 0.326711828 0.0 0.0 0.0 128 128 128
0.117200593 0.087028892 0.392707035 0.0 0.0 0.0 128 128 128
-0.031951723 0.188255807 0.381437903 0.0 0.0 0.0 128 128 128
0.043758838 -0.013688491 0.236855405 0.0 0.0 0.0 128 128 128
-0.106780965 0.032558255 0.381346354 0.0 0.0 0.0 128 128 128
-0.019199866 -0.093734703 0.234667371 0.0 0.0 0.0 128 128 128
-0.026228053 -0.116490235 0.421913227 0.0 0.0 0.0 128 128 128
0.092213183 0.226322733 0.420265396 0.0 0.0 0.0 128 128 128
-0.047427968 -0.069733199 0.073861753 0.0 0.0 0.0 128 128 128
-0.047591131 -0.014157910 0.427424581 0.0 0.0 0.0 128 128 128
0.048928012 0.047067979 0.367090208 0.0 0.0 0.0 128 128 128
0.052872802 0.115808000 0.264809849 0.0 0.0 0.0 128 128 128
-0.036584031 -0.111082525 0.479492825 0.0 0.0 0.0 128 128 128
0.103749530 0.060182733 0.254115886 0.0 0.0 0.0 128 128 128
0.013835584 -0.018771149 0.356466164 0.0 0.0 0.0 128 128 128
-0.015049450 0.041596226 0.318412810 0.0 0.0 0.0 128 128 128
0.068365640 0.019311589 0.326553906 0.0 0.0 0.0 128 128 128
-0.008948269 -0.035246993 0.415110724 0.0 0.0 0.0 128 128 128
-0.021717159 0.023591232 0.318607633 0.0 0.0 0.0 128 128 128
-0.118808150 0.072488352 0.265349879 0.0 0.0 0.0 128 128 128
0.054332877 0.033612222 0.217517325 0.0 0.0 0.0 128 128 128
-0.075574525 -0.041128051 0.284342557 0.0 0.0 0.0 128 128 128
-0.094565659 0.059207654 0.330839568 0.0 0.0 0.0 128 128 128
0.030855246 -0.034440676 0.374426286 0.0 0.0 0.0 128 128 128
-0.060092072 -0.002121342 0.396547663 0.0 0.0 0.0 128 128 128
0.003605825 -0.036568819 0.263066680 0.0 0.0 0.0 128 128 128
0.013410637 0.027595640 0.329331244 0.0 0.0 0.0 128 128 128
-0.061545626 0.043406643 0.548538435 0.0 0.0 0.0 128 128 128
-0.024196958 0.026939156 0.380191439 0.0 0.0 0.0 128 128 128
-0.205317189 0.009908988 0.293478504 0.0 0.0 0.0 128 128 128
0.110775039 -0.020318866 0.287797136 0.0 0.0 0.0 128 128 128
-0.017479947 0.013324885 0.305207554 0.0 0.0 0.0 128 128 128
-0.004213022 -0.108332787 0.331979724 0.0 0.0 0.0 128 128 128
0.062053830 0.157533782 0.406521189 0.0 0.0 0.0 128 128 128
0.021754709 0.094701269 0.431528693 0.0 0.0 0.0 128 128 128
0.133107416 0.086612468 0.340570913 0.0 0.0 0.0 128 128 128
0.020675809 0.014332900 0.374171136 0.0 0.0 0.0 128 128 128
0.016025687 -0.062594304 0.181709129 0.0 0.0 0.0 128 128 128
-0.053734289 -0.162082759 0.355436729 0.0 0.0 0.0 128 128 128
0.000362911 -0.134045960 0.405053453 0.0 0.0 0.0 128 128 128
0.069348647 0.007668143 0.483413304 0.0 0.0 0.0 128 128 128
0.149733244 -0.096479520 0.432936412 0.0 0.0 0.0 128 128 128
0.035267830 0.033465582 0.424755801 0.0 0.0 0.0 128 128 128
-0.057533424 -0.047389795 0.283866231 0.0 0.0 0.0 128 128 128
-0.060392190 -0.007880939 0.233854067 0.0 0.0 0.0 128 128 128
-0.083658190 0.046202263 0.344322983 0.0 0.0 0.0 128 128 128
0.030636383 -0.151140839 0.287291739 0.0 0.0 0.0 128 128 128
-0.044433812 0.002602785 0.303097266 0.0 0.0 0.0 128 128 128
0.074657170 -0.004662089 0.351361133 0.0 0.0 0.0 128 128 128
0.001083054 0.056638836 0.312270343 0.0 0.0 0.0 128 128 128
0.089791503 0.036804688 0.362322955 0.0 0.0 0.0 128 128 128
0.003338919 0.041624317 0.431231323 0.0 0.0 0.0 128 128 128
0.075642204 0.030068813 0.420137500 0.0 0.0 0.0 128 128 128
0.009468655 0.100199216 0.347871479 0.0 0.0 0.0 128 128 128
-0.166011142 0.107030605 0.358628087 0.0 0.0 0.0 128 128 128
-0.093686276 -0.015857897 0.279293314 0.0 0.0 0.0 128 128 128
0.168016751 0.039814796 0.224503106 0.0 0.0 0.0 128 128 128
0.043693164 -0.031899196 0.503342667 0.0 0.0 0.0 128 128 128
-0.084215728 -0.179762360 0.355269534 0.0 0.0 0.0 128 128 128
-0.027842188 -0.033326859 0.178700867 0.0 0.0 0.0 128 128 128
0.034144748 0.133867612 0.197276074 0.0 0.0 0.0 128 128 128
0.093697895 -0.045497349 0.537920422 0.0 0.0 0.0 128 128 128
0.034880634 -0.015027550 0.438430541 0.0 0.0 0.0 128 128 128
0.042082276 -0.047396478 0.406817355 0.0 0.0 0.0 128 128 128
-0.040855670 -0.143079037 0.512527375 0.0 0.0 0.0 128 128 128
-0.027966648 -0.048721120 0.377097765 0.0 0.0 0.0 128 128 128
-0.124770549 -0.108286292 0.310028264 0.0 0.0 0.0 128 128 128
-0.041577745 0.005751142 0.439804617 0.0 0.0 0.0 128 128 128
-0.037922158 0.039423878 0.398123600 0.0 0.0 0.0 128 128 128
-0.086726031 0.018276458 0.274586610 0.0 0.0 0.0 128 128 128
0.085111900 0.036407190 0.351320329 0.0 0.0 0.0 128 128 128
-0.107175972 0.009279201 0.288637799 0.0 0.0 0.0 128 128 128
0.056477011 -0.009546120 0.285012435 0.0 0.0 0.0 128 128 128
0.074041432 0.057722805 0.302536234 0.0 0.0 0.0 128 128 128
0.092962227 -0.023871574 0.325267871 0.0 0.0 0.0 128 128 128
0.009904084 -0.060210700 0.314668808 0.0 0.0 0.0 128 128 128
-0.012838342 0.122422641 0.469971979 0.0 0.0 0.0 128 128 128
-0.020709616 0.128835019 0.346537060 0.0 0.0 0.0 128 128 128
0.030446454 0.070686227 0.373363826 0.0 0.0 0.0 128 128 128
0.193214576 0.019467705 0.254192860 0.0 0.0 0.0 128 128 128
0.104437678 -0.032965079 0.325656933 0.0 0.0 0.0 128 128 128
-0.239333831 0.080078872 0.415475932 0.0 0.0 0.0 128 128 128
0.063921558 0.078272472 0.485280016 0.0 0.0 0.0 128 128 128
-0.003680148 0.075009320 0.290492815 0.0 0.0 0.0 128 128 128
-0.028304095 0.084540812 0.381289906 0.0 0.0 0.0 128 128 128
-0.106673215 0.028906350 0.335367085 0.0 0.0 0.0 128 128 128
-0.065493303 0.034742964 0.317639544 0.0 0.0 0.0 128 128 128
-0.125639175 -0.088892422 0.491533606 0.0 0.0 0.0 128 128 128
-0.121194313 0.017824175 0.398804473 0.0 0.0 0.0 128 128 128
0.051135124 -0.098037733 0.324276946 0.0 0.0 0.0 128 128 128
0.011267738 0.064016741 0.298403134 0.0 0.0 0.0 128 128 128
-0.093077960 0.080205924 0.438412292 0.0 0.0 0.0 128 128 128
0.029605804 -0.048702973 0.382540932 0.0 0.0 0.0 128 128 128
0.008744856 0.067010294 0.250070963 0.0 0.0 0.0 128 128 128
0.009300862 -0.012725108 0.261225303 0.0 0.0 0.0 128 128 128
0.017251860 0.002793427 0.317171307 0.0 0.0 0.0 128 128 128
0.031682300 -0.113503761 0.345708657 0.0 0.0 0.0 128 128 128
0.034513133 0.022721429 0.436114223 0.0 0.0 0.0 128 128 128
-0.096089006 -0.120630434 0.369125419 0.0 0.0 0.0 128 128 128
0.036412202 0.169585903 0.399328998 0.0 0.0 0.0 128 128 128
-0.069915864 0.064482379 0.282349588 0.0 0.0 0.0 128 128 128
-0.118866876 0.208728070 0.376066030 0.0 0.0 0.0 128 128 128
0.057196051 0.045084020 0.494966142 0.0 0.0 0.0 128 128 128
0.022728521 0.097415843 0.267817292 0.0 0.0 0.0 128 128 128
-0.111372879 0.114124561 0.467988777 0.0 0.0 0.0 128 128 128
0.040858065 0.018085320 0.363294128 0.0 0.0 0.0 128 128 128
-0.055052914 0.123091032 0.402710465 0.0 0.0 0.0 128 128 128
0.040472436 0.030090021 0.433833026 0.0 0.0 0.0 128 128 128
0.040400424 0.059628782 0.256485530 0.0 0.0 0.0 128 128 128
0.040802640 0.174976121 0.308518160 0.0 0.0 0.0 128 128 128
-0.010306309 0.071355497 0.426584253 0.0 0.0 0.0 128 128 128
0.049954167 -0.129408021 0.390138422 0.0 0.0 0.0 128 128 128
-0.094693961 -0.065976153 0.393844303 0.0 0.0 0.0 128 128 128
-0.023665930 0.064769833 0.601851092 0.0 0.0 0.0 128 128 128
0.062174404 0.057828212 0.278341802 0.0 0.0 0.0 128 128 128
-0.051437142 -0.085092951 0.307392333 0.0 0.0 0.0 128 128 128
-0.087340164 -0.052775201 0.333302253 0.0 0.0 0.0 128 128 128
-0.080045909 -0.113527768 0.241082918 0.0 0.0 0.0 128 128 128
0.036313689 0.004779723 0.432075226 0.0 0.0 0.0 128 128 128
0.083555137 -0.027251114 0.403603486 0.0 0.0 0.0 128 128 128
-0.115241644 0.182641883 0.445632344 0.0 0.0 0.0 128 128 128
-0.017202672 -0.093055955 0.380403886 0.0 0.0 0.0 128 128 128
-0.149605882 -0.062344195 0.409900605 0.0 0.0 0.0 128 128 128
0.006035920 -0.039277178 0.426059166 0.0 0.0 0.0 128 128 128
-0.083090721 0.022776049 0.310169160 0.0 0.0 0.0 128 128 128
-0.067789637 0.037071661 0.270569645 0.0 0.0 0.0 128 128 128
0.152160516 -0.046777348 0.509185599 0.0 0.0 0.0 128 128 128
-0.087517663 0.048476113 0.254033945 0.0 0.0 0.0 128 128 128
-0.107289385 0.012776427 0.404204706 0.0 0.0 0.0 128 128 128
-0.101941036 0.094731765 0.286192079 0.0 0.0 0.0 128 128 128
0.010497815 0.030382309 0.397574535 0.0 0.0 0.0 128 128 128
-0.143824976 0.129485009 0.394943448 0.0 0.0 0.0 128 128 128
-0.034047478 -0.081932312 0.214474278 0.0 0.0 0.0 128 128 128
-0.108913857 0.043595078 0.322714137 0.0 0.0 0.0 128 128 128
-0.090521276 -0.042154797 0.475129003 0.0 0.0 0.0 128 128 128
-0.026453992 -0.046755860 0.458048485 0.0 0.0 0.0 128 128 128
0.036951335 0.003542466 0.301377449 0.0 0.0 0.0 128 128 128
-0.124192863 -0.093643402 0.311563072 0.0 0.0 0.0 128 128 128
-0.017570056 0.028499383 0.394141178 0.0 0.0 0.0 128 128 128
0.017833725 0.017632680 0.269398025 0.0 0.0 0.0 128 128 128
-0.172380395 -0.041670066 0.273668062 0.0 0.0 0.0 128 128 128
-0.052210156 -0.021964318 0.250511434 0.0 0.0 0.0 128 128 128
-0.088840834 -0.008025365 0.359261642 0.0 0.0 0.0 128 128 128
-0.052479862 0.039862806 0.332443623 0.0 0.0 0.0 128 128 128
-0.081593047 0.003258453 0.500593087 0.0 0.0 0.0 128 128 128
-0.053994096 0.093291180 0.460222071 0.0 0.0 0.0 128 128 128
0.119852928 -0.065810241 0.511229915 0.0 0.0 0.0 128 128 128
0.009307957 -0.020303113 0.331572167 0.0 0.0 0.0 128 128 128
0.048125883 0.004090203 0.335848266 0.0 0.0 0.0 128 128 128
0.102687113 -0.057821014 0.266548486 0.0 0.0 0.0 128 128 128
0.063448408 0.056287790 0.437518203 0.0 0.0 0.0 128 128 128
-0.085775981 0.086511317 0.388561706 0.0 0.0 0.0 128 128 128
0.141006035 -0.099863013 0.367459228 0.0 0.0 0.0 128 128 128
-0.022205394 -0.127181274 0.292808965 0.0 0.0 0.0 128 128 128
0.090165132 -0.037516854 0.292192196 0.0 0.0 0.0 128 128 128
0.069460831 0.079110134 0.428942716 0.0 0.0 0.0 128 128 128
-0.063175470 -0.004640700 0.432452731 0.0 0.0 0.0 128 128 128
-0.052482730 -0.059946494 0.416258558 0.0 0.0 0.0 128 128 128
0.124987896 -0.092165980 0.142194527 0.0 0.0 0.0 128 128 128
-0.116025316 -0.080996196 0.338985864 0.0 0.0 0.0 128 128 128
0.049267937 -0.011720095 0.293972839 0.0 0.0 0.0 128 128 128
0.012269575 -0.076949740 0.346246373 0.0 0.0 0.0 128 128 128
-0.051325477 0.214427455 0.415342955 0.0 0.0 0.0 128 128 128
-0.066801154 -0.079754737 0.314945743 0.0 0.0 0.0 128 128 128
-0.131590010 -0.058439557 0.290941831 0.0 0.0 0.0 128 128 128
0.070714055 -0.034128025 0.286756338 0.0 0.0 0.0 128 128 128
-0.107237267 -0.094131084 0.344691516 0.0 0.0 0.0 128 128 128
-0.017210328 0.090740130 0.299669551 0.0 0.0 0.0 128 128 128
0.084734743 0.020570105 0.349629145 0.0 0.0 0.0 128 128 128
-0.160664341 -0.103204655 0.409314308 0.0 0.0 0.0 128 128 128
0.111825589 0.016515904 0.411002185 0.0 0.0 0.0 128 128 128
-0.032617771 -0.029708074 0.296962990 0.0 0.0 0.0 128 128 128
0.077975902 0.027423791 0.331266455 0.0 0.0 0.0 128 128 128
-0.026271301 0.044520447 0.375849244 0.0 0.0 0.0 128 128 128
-0.066563357 0.137278870 0.370562314 0.0 0.0 0.0 128 128 128
0.000838328 0.118182854 0.431921360 0.0 0.0 0.0 128 128 128
-0.007037349 0.042878814 0.264401734 0.0 0.0 0.0 128 128 128
-0.051267434 -0.180826516 0.447629362 0.0 0.0 0.0 128 128 128
-0.151872917 0.054502019 0.283545849 0.0 0.0 0.0 128 128 128
-0.078317717 -0.015602470 0.371312974 0.0 0.0 0.0 128 128 128
0.048968518 0.141730535 0.378689125 0.0 0.0 0.0 128 128 128
0.070495629 -0.047879121 0.407097705 0.0 0.0 0.0 128 128 128
0.012261500 -0.037054736 0.342321655 0.0 0.0 0.0 128 128 128
-0.004964408 0.015289540 0.382111294 0.0 0.0 0.0 128 128 128
-0.040711230 -0.059261876 0.409797727 0.0 0.0 0.0 128 128 128
-0.135724081 -0.049456532 0.474209408 0.0 0.0 0.0 128 128 128
-0.216575815 -0.055444162 0.405017551 0.0 0.0 0.0 128 128 128
-0.132025696 0.207851370 0.142927714 0.0 0.0 0.0 128 128 128
0.114924756 0.124587309 0.423308189 0.0 0.0 0.0 128 128 128
-0.017726846 0.028574256 0.278220009 0.0 0.0 0.0 128 128 128
0.064745973 -0.089589193 0.328090085 0.0 0.0 0.0 128 128 128
0.079699942 -0.089144233 0.320858515 0.0 0.0 0.0 128 128 128
0.013141186 -0.107343067 0.443149800 0.0 0.0 0.0 128 128 128
0.027261927 -0.121247198 0.346242468 0.0 0.0 0.0 128 128 128
-0.062026814 -0.052604637 0.356139584 0.0 0.0 0.0 128 128 128
-0.056775274 0.077160930 0.293627318 0.0 0.0 0.0 128 128 128
0.078536788 -0.003500756 0.418461495 0.0 0.0 0.0 128 128 128
-0.043306773 -0.040422716 0.257802777 0.0 0.0 0.0 128 128 128
0.046238306 0.075023620 0.519535085 0.0 0.0 0.0 128 128 128
0.103242201 0.019982454 0.333122358 0.0 0.0 0.0 128 128 128
0.031096280 -0.002219017 0.467078120 0.0 0.0 0.0 128 128 128
0.075515518 -0.066940891 0.294989557 0.0 0.0 0.0 128 128 128
0.109382552 0.024646411 0.331459266 0.0 0.0 0.0 128 128 128
0.094906893 -0.031007529 0.327617959 0.0 0.0 0.0 128 128 128
-0.036893723 -0.156933801 0.419140559 0.0 0.0 0.0 128 128 128
-0.096726757 -0.045495418 0.290490249 0.0 0.0 0.0 128 128 128
0.058159248 -0.005486623 0.351233324 0.0 0.0 0.0 128 128 128
-0.134356784 -0.006994964 0.231893352 0.0 0.0 0.0 128 128 128
0.024575760 0.029337839 0.348608201 0.0 0.0 0.0 128 128 128
0.163451495 0.042218313 0.397665934 0.0 0.0 0.0 128 128 128
0.011384908 -0.015420646 0.427273461 0.0 0.0 0.0 128 128 128
0.088115963 -0.104092829 0.434359168 0.0 0.0 0.0 128 128 128
0.041105856 0.076856006 0.387294302 0.0 0.0 0.0 128 128 128
-0.099541578 -0.093833316 0.495967242 0.0 0.0 0.0 128 128 128
0.020193909 -0.113380440 0.377850560 0.0 0.0 0.0 128 128 128
-0.028969888 -0.147473116 0.166784946 0.0 0.0 0.0 128 128 128
-0.128213336 0.021743403 0.346154223 0.0 0.0 0.0 128 128 128
-0.019932735 0.022774252 0.398090434 0.0 0.0 0.0 128 128 128
-0.168200595 -0.024092095 0.283766828 0.0 0.0 0.0 128 128 128
-0.098655598 -0.043776102 0.340170232 0.0 0.0 0.0 128 128 128
-0.021308517 -0.116373385 0.311348039 0.0 0.0 0.0 128 128 128
0.161266631 -0.084364388 0.215032562 0.0 0.0 0.0 128 128 128
0.022019326 0.047730253 0.387123528 0.0 0.0 0.0 128 128 128
-0.089577403 0.079847594 0.287173425 0.0 0.0 0.0 128 128 128
-0.090790116 -0.048678202 0.341303959 0.0 0.0 0.0 128 128 128
0.057127314 0.049906546 0.348200058 0.0 0.0 0.0 128 128 128
0.074632444 0.006519166 0.421678712 0.0 0.0 0.0 128 128 128
-0.112309504 -0.125933919 0.412057636 0.0 0.0 0.0 128 128 128
-0.111206596 -0.024121536 0.342151780 0.0 0.0 0.0 128 128 128
-0.039036067 -0.036279158 0.461410124 0.0 0.0 0.0 128 128 128
-0.202368121 0.070709891 0.533613787 0.0 0.0 0.0 128 128 128
0.001886765 -0.001517984 0.408109664 0.0 0.0 0.0 128 128 128
0.146308363 -0.095043916 0.357015147 0.0 0.0 0.0 128 128 128
-0.014897322 0.044750502 0.362734936 0.0 0.0 0.0 128 128 128
0.052772249 -0.033730615 0.353920172 0.0 0.0 0.0 128 128 128
-0.053627390 -0.053143240 0.338676813 0.0 0.0 0.0 128 128 128
-0.011360792 -0.093798699 0.475604670 0.0 0.0 0.0 128 128 128
-0.010806727 -0.110696061 0.438122767 0.0 0.0 0.0 128 128 128
-0.059862626 0.040662507 0.348638642 0.0 0.0 0.0 128 128 128
0.020049298 0.013681687 0.303986578 0.0 0.0 0.0 128 128 128
0.003275703 0.162647364 0.170991532 0.0 0.0 0.0 128 128 128
0.005276569 0.034798518 0.265818279 0.0 0.0 0.0 128 128 128
-0.109627844 0.172713273 0.320279701 0.0 0.0 0.0 128 128 128
0.166319613 0.042861065 0.356091285 0.0 0.0 0.0 128 128 128
0.038077641 0.050800436 0.444372418 0.0 0.0 0.0 128 128 128
0.034865268 0.011568850 0.364103001 0.0 0.0 0.0 128 128 128
0.108153066 0.065357459 0.269838276 0.0 0.0 0.0 128 128 128
-0.050850304 0.026459906 0.300166294 0.0 0.0 0.0 128 128 128
-0.030118962 -0.076473567 0.329068571 0.0 0.0 0.0 128 128 128
0.033890211 0.079612929 0.350738476 0.0 0.0 0.0 128 128 128
0.165988002 -0.006113071 0.605473853 0.0 0.0 0.0 128 128 128
0.080132167 0.039737795 0.310077308 0.0 0.0 0.0 128 128 128
-0.225959522 -0.012410529 0.364257464 0.0 0.0 0.0 128 128 128
0.153796256 -0.110379964 0.502470909 0.0 0.0 0.0 128 128 128
-0.020099552 0.057924550 0.146812287 0.0 0.0 0.0 128 128 128
0.011122431 -0.027498564 0.404594353 0.0 0.0 0.0 128 128 128
0.007298023 -0.091379170 0.425759011 0.0 0.0 0.0 128 128 128
0.055570299 0.047741456 0.430713229 0.0 0.0 0.0 128 128 128
0.088077395 -0.001744934 0.241387402 0.0 0.0 0.0 128 128 128
-0.110796982 0.107980099 0.406835795 0.0 0.0 0.0 128 128 128
0.008162348 -0.034771860 0.352524568 0.0 0.0 0.0 128 128 128
0.001983537 -0.026940697 0.294078006 0.0 0.0 0.0 128 128 128
0.173145348 0.018284795 0.301535631 0.0 0.0 0.0 128 128 128
-0.104164931 -0.058055494 0.407578118 0.0 0.0 0.0 128 128 128
0.060670697 -0.017468284 0.354136856 0.0 0.0 0.0 128 128 128
-0.024404198 -0.088626904 0.454134899 0.0 0.0 0.0 128 128 128
0.029810825 0.198108420 0.289506377 0.0 0.0 0.0 128 128 128
-0.011002669 0.070637617 0.330392422 0.0 0.0 0.0 128 128 128
-0.111015602 -0.075909570 0.358060005 0.0 0.0 0.0 128 128 128
0.027469386 -0.007568426 0.430278810 0.0 0.0 0.0 128 128 128
0.079421243 0.025822332 0.352151352 0.0 0.0 0.0 128 128 128
-0.020231386 0.044082011 0.423570073 0.0 0.0 0.0 128 128 128
0.004848385 0.035999859 0.324054945 0.0 0.0 0.0 128 128 128
-0.112923966 -0.080076348 0.411261280 0.0 0.0 0.0 128 128 128
0.035760241 0.127217094 0.354487874 0.0 0.0 0.0 128 128 128
0.069181899 0.105841354 0.429556013 0.0 0.0 0.0 128 128 128
-0.048683756 -0.014765266 0.360381819 0.0 0.0 0.0 128 128 128
-0.078869495 0.037943081 0.431919080 0.0 0.0 0.0 128 128 128
-0.038468392 0.157804337 0.326742084 0.0 0.0 0.0 128 128 128
-0.016236638 -0.019062308 0.293337916 0.0 0.0 0.0 128 128 128
0.033428653 0.001602070 0.482909749 0.0 0.0 0.0 128 128 128
0.048584794 0.043015159 0.332276972 0.0 0.0 0.0 128 128 128
-0.113138617 -0.007160272 0.281976645 0.0 0.0 0.0 128 128 128
0.076147461 -0.002435431 0.483259428 0.0 0.0 0.0 128 128 128
0.058824825 0.066842876 0.368452572 0.0 0.0 0.0 128 128 128
0.016693787 0.052261829 0.423813505 0.0 0.0 0.0 128 128 128
-0.056845621 0.039382454 0.559686978 0.0 0.0 0.0 128 128 128
-0.007175202 -0.020443473 0.294602405 0.0 0.0 0.0 128 128 128
-0.115885138 0.095110914 0.354877233 0.0 0.0 0.0 128 128 128
0.023970208 0.147586742 0.550735139 0.0 0.0 0.0 128 128 128
-0.071083674 0.084364681 0.399907635 0.0 0.0 0.0 128 128 128
0.031967389 0.038398298 0.348276972 0.0 0.0 0.0 128 128 128
0.127302651 0.049331870 0.377762382 0.0 0.0 0.0 128 128 128
0.099953936 0.071926323 0.387023461 0.0 0.0 0.0 128 128 128
0.026364406 0.140676311 0.390984207 0.0 0.0 0.0 128 128 128
-0.006961859 -0.068347884 0.322703680 0.0 0.0 0.0 128 128 128
-0.083752066 0.008836625 0.370786944 0.0 0.0 0.0 128 128 128
-0.163833139 0.001689306 0.402152759 0.0 0.0 0.0 128 128 128
0.013543022 -0.076155815 0.451714025 0.0 0.0 0.0 128 128 128
-0.055499000 -0.098059860 0.263746125 0.0 0.0 0.0 128 128 128
-0.000959089 0.078830791 0.443438209 0.0 0.0 0.0 128 128 128
0.016965197 -0.095312257 0.297625324 0.0 0.0 0.0 128 128 128
-0.071661748 -0.014122494 0.208210132 0.0 0.0 0.0 128 128 128
0.009020006 0.051723552 0.338186665 0.0 0.0 0.0 128 128 128
0.036911410 -0.074995773 0.233707247 0.0 0.0 0.0 128 128 128
-0.050881302 0.092644692 0.432472371 0.0 0.0 0.0 128 128 128
-0.036476947 0.096370166 0.324073177 0.0 0.0 0.0 128 128 128
0.121013671 0.038668695 0.313899437 0.0 0.0 0.0 128 128 128
0.063675380 -0.061926615 0.275180006 0.0 0.0 0.0 128 128 128
-0.116044441 0.020686777 0.345747276 0.0 0.0 0.0 128 128 128
-0.006169061 -0.032788170 0.465030774 0.0 0.0 0.0 128 128 128
-0.033888476 -0.057872995 0.449688985 0.0 0.0 0.0 128 128 128
0.113702701 0.027108703 0.210797776 0.0 0.0 0.0 128 128 128
-0.047976879 0.049032252 0.351417881 0.0 0.0 0.0 128 128 128
0.124326046 -0.109353162 0.404270478 0.0 0.0 0.0 128 128 128
-0.050162661 0.105843313 0.343990643 0.0 0.0 0.0 128 128 128
0.082451664 -0.051802327 0.237240095 0.0 0.0 0.0 128 128 128
-0.088830647 -0.048535923 0.268014909 0.0 0.0 0.0 128 128 128
0.096036907 0.107112836 0.371843718 0.0 0.0 0.0 128 128 128
-0.082735607 -0.009469660 0.295121967 0.0 0.0 0.0 128 128 128
0.116325957 0.025275481 0.389154923 0.0 0.0 0.0 128 128 128
-0.031974649 -0.160905728 0.288309252 0.0 0.0 0.0 128 128 128
-0.089330574 0.029620384 0.357723222 0.0 0.0 0.0 128 128 128
-0.064130184 -0.031088712 0.475318140 0.0 0.0 0.0 128 128 128
-0.076747445 -0.073436336 0.331732617 0.0 0.0 0.0 128 128 128
-0.055930954 -0.034299789 0.392515896 0.0 0.0 0.0 128 128 128
0.138577932 -0.142359513 0.348540452 0.0 0.0 0.0 128 128 128
0.003315082 -0.006714569 0.335031124 0.0 0.0 0.0 128 128 128
-0.027229636 0.080335425 0.312788990 0.0 0.0 0.0 128 128 128
-0.010185275 -0.000009093 0.358599646 0.0 0.0 0.0 128 128 128
-0.013669102 0.079939673 0.349305696 0.0 0.0 0.0 128 128 128
0.013924871 -0.004116252 0.269758046 0.0 0.0 0.0 128 128 128
-0.066397379 -0.084000570 0.365411886 0.0 0.0 0.0 128 128 128
